ply
format ascii 1.0
element vertex 657
property double x
property double y
property double z
property uchar red
property uchar green
property uchar blue
end_header
-0.500082080081957536 -0.000788678874785952999 -2.85250329971313477 49 36 46
1.82117996831154172 -0.252810310993888288 -3.48050284385681152 50 49 55
0.381361619584636324 -1.20886422646129521 -3.49122118949890137 53 80 75
1.8028790255148297 0.220127042387502303 -3.44298243522644043 27 15 17
0.559879718992843722 -1.45035476671386965 -2.87131619453430176 43 34 27
1.65110636572117842 -2.95583302255752756 -3.23217439651489258 102 93 96
-0.717157703771669097 0.0570556780097250527 -2.80943155288696289 63 46 38
2.08179625378598843 -3.10909829141225602 -3.27443552017211914 134 133 128
2.26802063883241845 0.566464795886171268 -2.58161568641662598 69 65 62
1.30558262695253369 0.931390867778260523 -2.90652799606323242 54 44 43
1.47077029773353019 -1.38521219179102584 -3.02802252769470215 53 79 104
0.582212796888538664 -3.69363620132262938 -3.41627955436706543 87 119 70
1.66022336359504097 -2.17206807287905512 -3.26891756057739258 133 111 88
-0.676915510474245141 -1.63949678617498362 -3.08700704574584961 97 103 115
0.617364728049330624 -1.35675092948128229 -3.0021214485168457 90 87 82
0.0105924549113353139 -2.06125537480614485 -2.9651026725769043 45 45 47
1.10082736814923976 1.63558261116519543 -2.9282984733581543 13 11 12
-4.23728240341996454 -1.82449572070263311 -4.80112218856811523 71 73 72
-1.53139000939033298 -0.870618776582507525 -2.75176620483398438 32 32 24
-1.24498225025828591 1.46376558334863849 -2.64371156692504883 49 51 134
0.636233784761760179 0.664003483255011462 -4.17713212966918945 61 64 71
-0.191076648862141318 1.16234762416331705 -3.03888511657714844 33 36 55
1.07861858260029853 -2.8083908179885233 -3.13529324531555176 182 181 195
-0.508631894346232571 -0.00855393006731550165 -2.7811577320098877 208 197 203
-1.17425210810463732 -2.72122636338196822 -3.01469588279724121 33 40 56
-1.52492330925761799 -2.6224677849329483 -2.96976613998413086 35 26 29
-4.24636650045551978 -0.956121404975364353 -4.58671665191650391 87 91 92
1.94762054597016232 0.97827109736078588 -2.86540007591247559 112 103 104
1.83104589418168495 -0.354299027160384528 -3.21996474266052246 164 143 148
1.24572875479949507 -2.51616845771625108 -3.06310009956359863 151 159 178
-4.0985291701265103 -1.59310854793879297 -4.59509515762329102 62 64 63
1.28988743991165755 -1.26025776664289424 -3.06734299659729004 68 57 53
-1.06053641002664367 2.0360612215782905 -2.63117742538452148 24 19 16
-1.49001738536164208 -0.510541531003482874 -2.73446178436279297 122 123 117
1.78382270461780967 -2.84415237724236203 -3.21967124938964844 33 44 38
-1.46923433640119061 -1.92207917814331752 -2.87464737892150879 112 74 65
-0.548651678206011573 1.4135873605982765 -2.66391372680664062 172 140 102
1.01518267220519398 -3.59515464046280409 -3.41585469245910645 98 66 28
1.73105009815602617 -0.77474679051695039 -3.17882323265075684 183 194 200
-1.31460146156053126 -1.70115332733202962 -3.03789639472961426 39 29 27
2.07709982651792391 -1.53962802820548195 -3.0316765308380127 64 59 55
-0.151184474275308345 -2.80816147779136971 -3.08135819435119629 147 148 143
-1.41812295877811834 -1.25025715666808601 -2.8072962760925293 55 65 64
0.940917751060345919 -1.08615952774528912 -3.30561542510986328 97 97 107
0.518160562778771538 -2.31308787842151631 -2.9733884334564209 85 29 38
0.0145487247433827571 0.913173888832237823 -2.53977036476135254 196 192 118
1.88788679249018543 0.969327557887277758 -2.95951485633850098 34 27 21
-1.4148644059905644 -3.2807230769240352 -3.15785336494445801 79 50 36
0.625839877454079763 0.459830829158030974 -3.23226499557495117 169 175 165
-0.766295112559037372 0.999224921873691163 -2.68836045265197754 157 172 105
-0.367305386836393133 -0.840170911208740989 -2.96360993385314941 180 187 205
-1.21599837915427789 1.86404961647483258 -2.63289642333984375 75 84 149
-1.52871843999179946 0.322865154027456192 -3.09411215782165527 4 28 6
2.26784728687358905 -2.79562246891463717 -3.22185158729553223 29 36 44
1.3941437007204458 0.875412594812111422 -2.81713438034057617 72 58 57
0.00357230462039481722 2.67127513789059767 -4.53444862365722656 153 160 186
0.830589616769185746 -2.44724358267384501 -3.01537013053894043 83 69 82
-4.20522153490023509 -2.18329628884528182 -4.70644712448120117 85 89 90
-0.212224493537121139 2.6120419302716491 -3.79587697982788086 98 101 118
-1.24295888824978373 -3.72524593289910655 -3.20206332206726074 85 108 139
-1.17995807162241384 -2.15042130231950113 -2.88667130470275879 41 42 37
1.14771302848442014 -2.31835627788572252 -3.02634954452514648 179 181 193
2.31939015509460189 1.55381204495619318 -2.61268138885498047 124 126 125
-0.32678482080472171 -3.72291689134061077 -3.25776314735412598 130 133 116
1.03785542972373412 -0.913214885937081333 -3.83304214477539062 73 43 43
-1.42649511425861997 0.761828114341592921 -2.50524377822875977 43 44 39
-1.57675103882921297 -3.33247529874487824 -3.1716303825378418 190 119 63
-1.10588869127894696 -2.3310354794060113 -2.94367742538452148 45 58 77
1.06357494472732106 -3.52859903077316961 -3.41819119453430176 153 98 57
-0.333826917314258287 -3.46448821538143914 -3.22240352630615234 148 134 131
1.68269178230112892 -2.27824817216202113 -3.00781583786010742 136 136 148
-1.30475972028260245 -0.155314733368330793 -2.962615966796875 37 39 36
3.70415565057970841 -3.66435799725371369 -5.2540135383605957 59 78 74
1.68731134931670246 -0.0133186301120226114 -2.91312599182128906 74 79 85
-0.250008639292963353 -1.7698644936107768 -3.12307190895080566 19 19 31
-0.760552672001424179 1.4435029370357757 -2.74013233184814453 119 135 72
-0.589424061523374232 -1.09162726629478612 -2.98789095878601074 59 39 64
1.4320130551948127 -0.704087119853363141 -3.76370644569396973 28 66 128
0.64484970456547841 0.125637030740829103 -2.97566008567810059 17 20 27
-0.0836477586305082177 1.94195908218668922 -3.11834478378295898 5 8 15
-1.42892497596907431 0.357540499730198025 -3.07779932022094727 71 116 59
-0.262358771749475306 -2.14276100979274542 -2.93526005744934082 34 46 70
-0.355296982759886415 -4.00339912209225091 -2.84220099449157715 152 157 153
-1.28226100683883848 -0.239716340705341036 -2.66173815727233887 18 19 21
0.458045225905082343 0.357026237942338842 -3.02850008010864258 171 164 158
-1.47762234370909606 -2.14479121478765267 -2.92252087593078613 53 49 46
1.03886718983892634 -1.22597057267872867 -3.11063528060913086 44 39 35
1.95595092309436969 -3.50829055680981705 -3.380096435546875 161 160 158
-4.2719824089203744 1.33617914133010229 -4.44851255416870117 88 90 89
-1.52083337306667055 -0.176886227044170063 -2.77290582656860352 53 59 55
-1.73964057954075901 -2.62083706045826403 -3.00545644760131836 160 164 163
-1.66344280005022549 -3.8294902699890585 -3.18223214149475098 130 151 110
0.637287072961548184 -0.766929399087194263 -3.4913783073425293 35 1 0
-0.467528469322400053 0.9507822527594183 -2.9287879467010498 14 38 22
0.0738657810154650374 1.84560661749750521 -3.27758312225341797 34 39 43
2.15725894975631771 -0.277837776345483789 -3.42102885246276855 108 82 83
0.679013745719392214 -1.1780358681304075 -3.65851306915283203 55 33 22
18.7796827394532819 7.49870431176725383 -43.7934837341308594 181 223 255
0.853557564757937426 1.46777053461405305 -4.00746011734008789 31 29 34
1.26657945565388674 -0.621196332129127615 -4.04916095733642578 58 69 91
2.05656435707120977 -2.34937702202022569 -3.5458674430847168 54 44 42
0.930970388851272812 1.65601027053619321 -3.90444755554199219 36 39 46
-0.85114417750858451 -1.72896084035298703 -3.10215115547180176 38 50 30
-4.18046023436431469 -2.16123756868158567 -4.59557056427001953 116 121 124
-4.28859089022717122 0.693423553796433723 -4.45048284530639648 107 108 112
1.16566904930066029 -3.09011449789751502 -3.32845211029052734 35 15 16
1.24311554685814252 0.797194774248583204 -2.52416348457336426 218 223 227
-0.496182330704791508 1.61189769209601907 -2.93155860900878906 9 11 10
1.11966489596548957 1.39768171049351109 -2.80748486518859863 93 83 81
-0.505449128952410232 1.6431083951438834 -2.64131426811218262 66 132 193
-0.343270192591738743 -3.63763552649216848 -3.25368738174438477 82 91 70
1.35993538677661863 -0.715514428179120143 -3.84507322311401367 117 150 183
-0.852421770671454082 -0.5547992967186679 -2.68489623069763184 49 61 113
-0.832365652362142106 0.318423158683751761 -2.64366674423217773 32 29 22
-0.685666530577310196 1.442898083589226 -2.65728640556335449 224 229 225
1.37268484274883273 0.64652613900444611 -2.48447751998901367 98 78 67
0.0239639698552767122 2.20573509805573975 -2.79275274276733398 118 124 140
2.64935664620703548 -3.7285787279455147 -3.32278990745544434 100 83 39
-0.183282697199039168 -1.03754349694629355 -2.92480254173278809 70 37 20
-0.835107852086298896 -2.76106728631652532 -3.07072806358337402 32 22 21
2.19065448686287567 -2.45297800404030131 -3.16626906394958496 36 42 54
-0.850890098486277058 -0.105197854084607523 -2.58434176445007324 79 39 14
-0.755573320186025188 1.36655071513847903 -2.66262626647949219 138 151 81
-0.827645983951084019 1.53593519763101916 -2.65398979187011719 15 16 11
2.51350324789607971 1.43053828620773316 -3.028594970703125 121 120 125
-0.19045414528477253 0.889183413959884761 -2.50909972190856934 150 180 90
1.21498767765952631 0.784975123996057622 -2.49518799781799316 178 225 191
-0.824067261411626895 0.343829647954596085 -2.89982342720031738 15 16 21
-1.27562476220646293 2.31088148966970897 -2.60390686988830566 125 129 138
1.97455898195513724 -1.32613520146089359 -3.41225433349609375 128 106 108
0.0372587594972616926 -0.0070683785866159695 -2.74197244644165039 188 184 199
-1.31262961484117091 0.350831903281584756 -3.04841041564941406 80 98 120
1.43657253661963091 -3.44453733310178656 -3.43332695960998535 8 24 40
-1.10516520851090139 2.1942933018485804 -2.61517572402954102 177 183 197
1.58149740688657592 -0.663718810678287974 -3.42585659027099609 90 109 126
-0.362180528817074132 -0.872478289528143103 -2.96857738494873047 169 168 184
2.27194512876707755 -3.68391059591717118 -3.39775776863098145 113 125 121
-1.24743294345239253 2.76699844528112759 -3.12547445297241211 42 43 47
0.547434091464508166 0.098545218256178943 -3.58830404281616211 77 72 68
2.21535074779973629 -0.701975771281125316 -3.34741806983947754 75 85 94
-1.91166439283825795 -2.84078796603896544 -4.37108659744262695 1 3 0
2.18817915174579358 -2.76560427251945073 -3.23395848274230957 178 187 184
-4.18954917948782235 0.0707492220839176511 -4.58853864669799805 113 115 114
-1.33553892130797647 -0.63809225368505329 -2.71381545066833496 175 158 151
-0.680788782578524043 -1.7312423201923528 -3.10011386871337891 96 101 107
0.0796535469707957411 -2.7378388474565889 -3.0522923469543457 82 82 80
2.3184733631026706 -3.12680309950454216 -3.27430081367492676 40 39 47
0.890598112033475164 -0.522237138113362143 -3.9223020076751709 37 74 93
-0.86979116612651608 0.112472497570815844 -2.5624396800994873 36 33 52
0.681226435788125806 -1.12156758777079202 -3.72562885284423828 68 92 94
-0.669578044704396969 1.68776430399172717 -2.64308786392211914 227 234 244
-0.59327547786833168 -1.99673182175566133 -2.90185356140136719 108 116 119
-0.281973598266807512 0.355049404002514168 -2.95192909240722656 97 95 82
-0.805746551153294743 0.855642235417015895 -2.36760759353637695 58 47 41
2.03375926437864285 -1.52610228552630955 -3.07903242111206055 48 41 35
-0.53185268067463487 1.87067957671615082 -2.62260055541992188 67 127 199
-1.66774945715279332 -3.04133769272536236 -3.10543513298034668 150 99 78
-0.708200056034782532 -1.32672422286643976 -3.00946187973022461 12 10 15
1.56011527320647692 0.762508566943834842 -2.62640094757080078 238 125 81
1.07288632535330919 -3.35269794579211089 -3.35290384292602539 126 81 40
2.076777850745676 -0.115482220078361286 -3.11422443389892578 89 99 108
1.39054287094369133 0.905390773880649258 -2.6229712963104248 253 208 213
-0.482336131089346032 -2.03708396455330121 -2.90770602226257324 39 45 79
-0.775253053959784277 -2.31260332252214162 -2.91594862937927246 33 35 47
-2.09632031914806305 -0.926269576031238828 -2.99089312553405762 129 131 128
0.13586956853720078 -1.38160033901130941 -2.83173251152038574 43 43 53
0.755430322216982253 -3.19677274984966564 -3.30196690559387207 72 29 23
0.21991861159339976 -3.74733730945114507 -3.42551994323730469 89 123 72
1.62599975184472045 -0.57882892304402811 -3.32015156745910645 79 101 115
-1.01090289204044415 -1.20739617692860257 -2.75140810012817383 25 22 33
-0.040535020863761928 1.98291208581320344 -3.00504326820373535 35 36 38
-1.39052088815727481 -3.08790445081891951 -3.11022377014160156 222 172 139
-0.839906076911057897 1.11602265502349263 -2.67953062057495117 39 46 15
-0.979025274655437983 -1.77386103452547328 -3.10676002502441406 99 88 84
-0.401635426198048706 1.466622124643711 -2.72327589988708496 45 50 56
-0.229918313376556299 1.06755895438181314 -3.0272529125213623 37 40 49
-0.591998554375789299 -3.26116899981569164 -3.1626594066619873 144 141 132
-0.637877248670241981 0.18837483386487841 -2.96274566650390625 17 30 36
-1.72508551963633439 -2.88288558213821666 -3.07598400115966797 111 69 53
0.591285976651300005 1.89408791314226344 -3.86684203147888184 137 110 127
-0.00104173943585122997 -1.1445563776264307 -2.95169591903686523 138 53 50
-1.39954672194126095 0.028319839841146166 -3.15529799461364746 27 34 27
-0.121433976876527946 0.119001464443257182 -2.80389213562011719 59 42 14
-0.562471568129218946 0.464956673749825911 -2.89570498466491699 139 84 53
1.37699507344368643 -1.15347203528982001 -3.24195098876953125 83 166 246
0.427843868157659901 0.869547547372423568 -2.39953231811523438 107 188 119
-0.93159671624717677 0.544348957912731857 -3.23415708541870117 13 13 13
-0.381336010811439641 -3.37182025652006789 -3.17915081977844238 151 99 60
2.42873979913784677 -0.433781965071349918 -3.34692621231079102 96 108 106
-0.69650623176079518 0.208140450514150005 -2.92630100250244141 70 45 40
-1.89017939744109742 -3.01562585912245762 -3.82810831069946289 75 76 70
0.851891260906134762 -1.9769644822666117 -2.9841306209564209 135 108 143
-1.42167092101491521 2.94797386737310774 -3.61662864685058594 50 49 55
-1.16724931651134067 -0.47019063809644418 -2.64899325370788574 11 7 4
-0.550401330555557067 0.991089755400106576 -2.9299933910369873 5 4 0
1.72508038588206514 0.288589425075091222 -3.57428717613220215 77 71 75
1.71654048647087332 1.06190826741194844 -2.7094573974609375 210 194 161
0.361851188445886318 1.18350422116824028 -3.19354844093322754 48 77 119
-2.99659109738212326 -3.12182533807420359 -3.93308854103088379 87 74 57
-0.33318622021913058 0.0313047960639951522 -2.83151459693908691 50 34 45
0.620762680038039361 -1.34067062345080834 -3.19268989562988281 20 15 12
1.97025740324589904 1.05010018552565398 -2.17781305313110352 180 190 199
2.21108923895566667 -0.894737627293534454 -3.48313593864440918 87 101 110
-1.27480592794009961 1.06780597524754906 -2.66962385177612305 32 45 115
-0.70338252636906462 1.54781086411528501 -2.65291905403137207 116 164 187
1.86762865861149052 -0.180119648438332391 -4.56195640563964844 127 130 137
-0.0973581868541454343 2.00063666733253243 -2.83593630790710449 35 15 16
0.170739684314820117 -0.0194618551307797205 -2.75609493255615234 61 41 32
-0.925886396170097936 0.289480253238828589 -2.57044458389282227 180 169 185
1.68012227635494327 -3.0436599950409744 -3.25992941856384277 68 83 76
-0.924461420754247087 -0.48218615365990064 -2.62841439247131348 32 37 67
0.894796067622388946 1.18852736314527396 -2.85947060585021973 75 69 55
0.643930611290764121 0.918451053915398941 -2.81178879737854004 53 44 45
-1.48600745117701116 0.0100139705028512438 -3.1293940544128418 15 18 11
4.04944595569859356 -3.3354673337335452 -5.32142877578735352 43 69 82
-0.172947142769735829 1.19229708531873224 -3.04047179222106934 92 95 102
-1.09192760211319495 0.00739491425470645281 -2.55632114410400391 153 153 155
-1.27502189616260142 -3.57467316024838277 -3.2096717357635498 88 108 71
-4.1421321463543288 0.00792865738055392733 -4.51575803756713867 94 94 94
-1.10926570490197429 1.30018881933739228 -2.65649700164794922 40 30 20
1.63275747874296151 -2.15994755684950901 -3.28906941413879395 141 137 89
0.964980930918507562 -0.487118671229617439 -3.50704455375671387 49 42 36
-0.87804510134556768 0.34931112653362989 -2.86732673645019531 62 67 71
1.20227864808631635 -1.98851174434093525 -3.00993227958679199 24 23 37
-1.32021437555159205 1.8617274038839664 -2.62644410133361816 206 213 229
1.24219755490283568 1.03134584374555605 -2.90646052360534668 40 30 31
-1.05801311367269135 -1.1596919645761532 -2.74348664283752441 167 177 187
1.93630120103831849 -3.40507865487393868 -3.37029075622558594 49 74 81
-1.09870731128589028 -0.661717051858270899 -2.6441497802734375 192 187 193
2.074648432272856 0.773356251653051108 -2.91322612762451172 155 135 124
-0.674399354958957753 1.59704536942769293 -2.64821338653564453 181 177 152
-0.93894921496246786 -0.298028535932995053 -2.6144256591796875 194 196 221
-0.560903494791000101 0.929223058159830417 -2.73121380805969238 102 104 103
1.51899801294919001 -2.4274869149505327 -3.08400821685791016 128 106 82
-1.31441116439336758 -0.65023679779265664 -2.67084026336669922 144 123 122
1.53713568700780745 -2.26345863512602463 -3.05684232711791992 100 82 82
0.88883816709717578 1.74084823373474773 -4.51456499099731445 241 231 240
-0.0179665854514113876 1.4929304477790859 -3.37487626075744629 6 8 7
-1.0687146264447378 -0.0699902254306865035 -2.57947897911071777 95 88 95
1.77798206879632215 -0.580185225110423808 -3.64174103736877441 113 124 142
-1.16163603104010393 2.07100796500598872 -2.58695840835571289 186 193 211
2.28360152297078001 -0.265744821651490049 -3.43740367889404297 111 79 80
-0.636012112252954509 -3.05239346381172139 -3.08217096328735352 143 91 67
0.527696412262167791 0.86818297446556858 -2.4973599910736084 145 217 153
-4.08381773654605595 -1.49547293437606488 -4.51555061340332031 107 108 103
-1.47474117542451189 -1.4899302971964925 -3.09134960174560547 54 72 82
0.40139557437512674 -1.90340762800593133 -2.93624019622802734 130 130 140
-1.36689903572621274 -1.3735200800052525 -2.59888982772827148 204 207 214
-1.04444583889235076 -0.480902181069923385 -11.2336320877075195 159 155 144
1.53891191788548953 -2.18389445221221079 -3.07527709007263184 76 79 62
1.03381619921260093 1.17231552938041372 -2.71375203132629395 215 214 228
1.30890334084682403 1.50601343910653029 -2.72915863990783691 163 152 146
0.509716676173507022 -1.83365569445009258 -2.93258261680603027 43 60 80
-0.612831649998197836 1.09215494780193989 -2.68288564682006836 193 193 201
1.30480604877282658 -3.31507964920293841 -3.38876891136169434 85 32 28
1.13117266489286883 1.27233712737546023 -2.82495331764221191 216 209 191
0.316910318146204406 -1.21203579635598668 -3.51786303520202637 46 61 66
0.699905560047009656 0.957286089870334589 -3.26597023010253906 121 147 148
2.22274237849981304 -3.19897735554904283 -3.28314566612243652 22 33 35
2.12502510922426779 -2.28089521024156383 -4.25214910507202148 27 27 27
1.68453858285262625 1.48221444425293813 -2.78706526756286621 49 41 39
-1.04806470297068821 1.20768576776796843 -2.65398502349853516 32 23 26
0.884802098132547621 1.46453406791621754 -3.15969085693359375 25 22 17
-1.58358355235442883 -0.303248841936441749 -2.72642421722412109 71 77 77
-0.576447131910904131 1.01882850385972068 -2.92743015289306641 91 56 50
2.19523643979654937 -2.61457529358936336 -3.21790695190429688 45 54 63
1.88277906413013252 1.60770485404795371 -3.0590662956237793 134 133 129
-0.261524028299552791 -2.35281968442742162 -2.96344232559204102 90 99 106
-0.287583850868693647 -3.46885063214044642 -3.22213959693908691 136 121 126
-4.18384964345502564 0.392018952646933316 -4.27598285675048828 144 150 150
-0.895189705304409777 -2.77593421073513902 -3.05370450019836426 80 76 65
2.18016739099328527 0.251430395566085263 -2.44600462913513184 81 85 86
2.16847740130603217 -2.92403887728718326 -3.23901081085205078 20 27 37
2.28242839585356316 1.02745620436094942 -3.15196871757507324 135 143 156
1.23317065274098248 -0.679991314929884072 -3.91620898246765137 102 101 96
1.81033740473020432 0.243317478171195534 -3.49311017990112305 39 15 15
-1.35201502507600613 -2.65997834464895888 -3.00180172920227051 49 42 49
-0.218883015025921113 -3.53102003892173943 -3.23892569541931152 148 104 75
-0.677709841148929959 -1.02444486139783542 -2.88387680053710938 78 63 84
-4.27283035033739633 -3.32335301539835282 -4.835662841796875 77 77 75
-1.14001175389399045 0.811700241531121414 -2.41791725158691406 189 196 202
-0.915463524319971134 0.927441121866925622 -2.67638278007507324 107 79 55
-1.38675282112906384 2.11852918631585618 -2.64039134979248047 191 201 213
-2.5569742839051548 -3.18581192672280178 -4.90488815307617188 61 62 57
0.047982591261354457 0.944919455004116449 -2.47762036323547363 231 125 77
-0.580534467573344815 2.1784195077360029 -2.7638087272644043 149 156 172
1.20373283229826011 -1.39599127143903634 -3.00974297523498535 199 199 187
0.946528639970110053 1.58734787583717263 -3.19930601119995117 24 23 19
-1.38709420427401819 -1.93459362225327469 -2.87411379814147949 72 42 31
-0.74802562736613154 0.307486464331289677 -2.57786870002746582 53 53 53
1.15919284216850693 1.35881442772254468 -2.75106215476989746 123 112 106
-1.53701782002854515 -2.38758204545107766 -2.93573331832885742 59 65 89
0.776884145235365198 0.766416724786884274 -2.47976589202880859 194 200 212
0.443779082424250293 -0.975019698766750209 -3.58914685249328613 218 135 121
-0.185701040860208277 -1.05835577487908306 -2.92297863960266113 69 36 21
2.20342178976543446 0.469942241062685562 -2.41992330551147461 64 63 61
-4.64310414912560443 -2.3405643663632012 -4.12771844863891602 14 16 15
-1.11729989122132989 -0.569932553638350603 -2.7050173282623291 53 51 54
-1.17210413331605379 2.26285217797008986 -2.59377884864807129 139 143 155
1.61210856491889798 1.15189066176347388 -2.79770374298095703 214 197 171
1.6435455728543833 -3.65361344870195559 -3.75989341735839844 22 24 21
1.91242567055502 0.794666016316568191 -2.74232935905456543 169 159 90
1.20188341246314589 -1.84467622694026745 -3.08858227729797363 54 58 95
1.1053681365034016 -2.82280019331899013 -3.08957505226135254 84 84 94
-4.20080275557542127 2.28387921645093694 -4.32619524002075195 50 50 50
0.353115158328868195 -3.1256647847221144 -3.27376079559326172 59 44 51
0.652265461392847468 0.518935799587720181 -3.91173219680786133 33 32 37
0.45049391015953566 1.73847734010384825 -3.84304547309875488 168 171 180
-0.0409358811847024828 -3.22555956624687434 -3.19039225578308105 129 83 57
2.51611192278853357 1.73997142045026854 -3.74343776702880859 87 87 87
1.71112002615272818 0.237833365606622271 -4.25071477890014648 135 142 152
-0.138978215027439955 -1.04773700165568928 -2.9344017505645752 101 73 49
-0.117417638625882836 0.989391864801950183 -2.56351304054260254 140 131 62
-4.28987563318178733 2.02825138115060355 -4.336639404296875 94 98 97
-0.0875795125809555319 1.04032090480658801 -2.54217171669006348 122 93 98
-1.69467254733847383 -2.78026695520152867 -3.03663921356201172 80 57 49
1.36397513671769377 -2.82703023915942664 -3.18804287910461426 19 30 48
0.728669734253931334 2.85519003248498482 -6.30074262619018555 185 195 222
-0.495542427695833843 -0.0448520999776950979 -2.81119942665100098 134 127 134
-1.50520531348886877 0.917998792595181357 -2.44798851013183594 148 149 154
-0.972588429581993874 -1.78773027467532497 -3.08668255805969238 13 12 8
1.31892122852059401 1.09785580143729611 -2.5569758415222168 215 188 171
0.777832684517379525 -1.81747506094834499 -2.9460456371307373 121 109 121
0.630870166339365213 1.53778771952306914 -3.52826285362243652 16 14 17
-0.140492944456822033 -1.68388866220340416 -3.11527609825134277 1 4 19
0.927238765938259935 1.50057931738961559 -2.81305289268493652 50 38 26
0.313723889687491431 -3.11887926181907593 -3.2696688175201416 122 122 122
-4.12427245167542633 1.14866572499702824 -4.45294761657714844 145 146 151
1.690976591012741 -1.9329190752437686 -3.37991905212402344 17 21 33
-0.989596933390641809 0.837679242464123064 -2.8415219783782959 55 45 36
-0.258098177645308402 -2.79625499397685484 -3.07208681106567383 128 124 115
-0.425515967279910978 1.38453076160319166 -2.88697004318237305 45 44 50
1.00675444596289765 0.824847961372668026 -2.48224687576293945 143 188 168
-0.283949847778138975 1.30878372527580944 -3.16366434097290039 5 7 2
-1.47417592462452429 -1.84241405234491529 -2.85805797576904297 53 48 45
-0.196183011150953601 2.59412747157534707 -1.87801289558410645 94 91 82
2.38172661684504172 -3.06711197567018079 -2.99761795997619629 110 124 109
-1.32013281753097722 -0.590641141595736774 -2.70997476577758789 4 2 5
-0.918231934496767543 1.35173755485434954 -2.64897871017456055 220 180 95
1.22993596102166158 -1.22644334811727607 -3.10850691795349121 64 60 61
-0.886029779989490063 1.19033625475085447 -2.65450143814086914 131 115 100
-0.556863668288784419 1.50913130951992169 -2.65684819221496582 153 128 97
-0.27694314446595375 0.021607464721314612 -2.75356054306030273 60 42 54
-1.26891386876461687 0.397914750303284714 -3.0200040340423584 114 30 30
1.37863664490302229 -3.56836024274357344 -3.45432162284851074 155 126 82
-0.318578498122199294 -2.97031006703178857 -3.09960055351257324 112 80 81
-0.789257414434168636 0.977631325106121385 -2.6778562068939209 176 189 136
1.08069816857029544 -1.36896405660495102 -2.99455904960632324 193 179 179
0.888326499669890302 0.790025584789087798 -2.54643130302429199 144 216 150
-0.0852661051090730648 2.14726203210938005 -2.75858688354492188 116 116 126
-0.44480947990615749 -0.025615652351220819 -2.77149176597595215 183 178 185
0.686570123565896639 -1.38432837470473302 -3.36995625495910645 57 32 28
-1.09142960881290474 0.376240642350286092 -3.07633066177368164 17 17 15
-1.0545024682641686 -2.49579612276388962 -2.94939088821411133 50 54 57
0.444233882813258374 -3.81800772395085097 -3.45229554176330566 165 162 91
-0.932976035577407825 -1.86379287497839252 -2.88998055458068848 35 36 31
-0.616606672760450558 0.974990901797839427 -2.69020414352416992 186 186 184
1.45929989935409932 0.86023492470521179 -2.9219813346862793 54 44 43
-4.42561495189017862 -3.00737936047954157 -4.31149625778198242 88 86 89
-1.28253967997500418 -2.13526209060071714 -2.90242886543273926 42 42 42
-1.20666890114825187 1.48732951448501782 -2.63591384887695312 214 222 255
0.722937179718105116 -1.96350638636885444 -2.97362422943115234 179 163 176
-0.695696779750449634 0.12427643560176152 -2.93247389793395996 14 13 11
1.09650776771636549 -3.31946936477016719 -3.34050846099853516 68 20 18
1.15499925215437926 -2.39483538216137459 -3.03714299201965332 176 182 194
-1.65011296124734641 0.260602905072671809 -2.1609954833984375 163 162 157
-0.548973847277610338 1.22726632709179539 -2.88007974624633789 88 24 22
1.3880592761337518 -2.58520265188770892 -3.09995484352111816 8 5 26
0.492100260701196834 -3.38494395529201952 -3.37229204177856445 182 144 97
1.62506487513925313 -2.83902712090155251 -3.20330500602722168 92 104 92
0.00705534970398602468 1.62661444812545719 -3.20722174644470215 15 16 18
1.7040524597450899 -1.99692873115513603 -3.39106869697570801 144 150 162
-0.568530928721309392 0.97406080587568411 -2.8319547176361084 16 15 10
-0.99245762685831207 1.05547983020032321 -2.66657733917236328 30 24 36
2.39929005410734142 1.26293321880747667 -2.91153383255004883 137 141 144
-0.0214984810667879778 -3.11537735945716721 -3.21434140205383301 40 22 12
-0.292876371295300586 1.9526477422807611 -2.98025631904602051 64 73 80
2.1647760339657518 1.02636576881854191 -2.93671989440917969 132 140 151
1.64341644499560702 1.38774271193317889 -2.80462074279785156 61 38 22
-0.515671207755513672 -1.61870897566559724 -3.07282614707946777 78 78 88
-0.256537706127001663 -1.97061866757382398 -2.91530227661132812 52 53 57
-1.15514550108497782 0.303381229975150324 -3.03145933151245117 42 17 12
-0.585792545157863387 -3.06365489387773504 -3.04025053977966309 133 85 63
-1.49852209058904884 -2.00706809320267432 -2.92211151123046875 52 24 21
-0.728291565163053933 1.09500400839599865 -2.68901920318603516 150 162 140
0.263359336000047628 1.08789852427471656 -3.06949710845947266 89 88 102
-0.225622450308296529 -0.0384254062241213348 -2.73139214515686035 86 45 41
1.51850790017037696 -2.42752869648797631 -3.08316421508789062 122 102 78
2.30910355313443239 0.573990442138786472 -3.13330912590026855 71 67 66
-1.52844041625330895 -0.0282903251532240496 -3.02077460289001465 37 38 33
1.1433269377064923 -2.76966155152658144 -3.13624858856201172 123 121 134
-0.219955194410261706 1.076705310205188 -3.0471494197845459 28 35 45
-0.871541149607280463 0.406590870892824974 -3.25501656532287598 23 25 24
1.59680363257936753 0.0110396586350220982 -2.92093753814697266 63 63 63
-1.90523083964563966 -3.02193321592663899 -2.66838169097900391 116 94 83
-4.25279660708750384 0.432545971892969616 -4.46917200088500977 84 88 89
1.49859054327131114 -1.37223829186270496 -3.0433802604675293 75 68 99
0.387417018593766205 -2.87020083957646399 -3.09279561042785645 98 81 97
-4.55982300202430668 -0.944975398792085253 -5.10016393661499023 96 100 99
-0.965002197965427744 2.01371680853845447 -2.60700869560241699 44 43 48
1.92774197513201417 -4.06017942123526243 -3.44493603706359863 193 198 194
0.788525239783336551 2.1557645012182487 -3.95624113082885742 164 178 205
1.30496013625659701 1.2088250736764532 -2.71379899978637695 106 66 64
1.51565614210929001 0.694430342737429318 -2.55412697792053223 244 144 110
2.02117552410974488 -3.15402847463416203 -3.28285646438598633 29 26 43
0.33476869621083799 -1.79557152574955881 -2.91370654106140137 128 130 151
1.21735176059534012 0.959248757090070514 -2.87595534324645996 40 33 27
1.9199416359142969 -2.4397999275468969 -3.17140531539916992 43 86 92
0.0405971015600948837 1.72944821164693407 -2.9521782398223877 37 46 53
-0.513609633457692727 -1.31431676108393347 -3.02081990242004395 98 46 58
1.73401128398819715 0.0337721803078839811 -4.17060422897338867 47 46 51
0.979931996881074907 -0.725658454224498595 -3.72712922096252441 193 177 154
-1.53712214582357909 0.51064511674313573 -2.27674579620361328 67 49 37
0.524688450010669438 0.800509120478399172 -2.499664306640625 127 204 134
1.0126533992235951 1.50588959426348934 -2.75486946105957031 63 58 62
-0.21300252968890826 -1.2532289145988027 -2.96611809730529785 55 38 22
-1.44968598330752618 -0.0937507552118506671 -2.64121437072753906 40 46 44
1.80323945441784916 0.161603742088771374 -3.65906691551208496 74 75 77
0.409318167443522229 -3.94395361367382025 -3.47822833061218262 62 96 71
-0.651834992829886994 -0.961112659448864814 -3.0178225040435791 64 52 66
1.521164707094524 -0.435872265734033426 -3.30015444755554199 68 77 92
-0.12714622683610699 1.12911338475927803 -3.02103185653686523 47 53 65
1.28136561048044273 0.142941687873479273 -4.3323822021484375 161 169 190
-0.196929736057867233 -2.84523251343741013 -3.08753633499145508 183 185 184
-0.719042300640536092 2.02300305889726273 -2.6503140926361084 127 72 77
-0.0277588917147066905 0.316205108754903819 -2.93082165718078613 147 146 142
0.840826287271169037 -2.68948312011166024 -3.09691429138183594 124 124 124
2.40522527151011767 -0.577401443978058815 -3.92050671577453613 96 112 127
1.88209752721546164 -3.65614360749193779 -3.40128445625305176 83 49 37
0.0802093540952032169 0.301332292900778675 -2.9346015453338623 30 26 23
1.64026284516611076 -2.69062850991242319 -3.23816490173339844 10 10 10
-1.23995224813318305 -0.0300733834746619855 -2.83647584915161133 113 105 84
2.1429386082558235 -0.458322903545498983 -3.30708050727844238 90 88 99
0.962675614452731088 1.15513977522373779 -2.75079727172851562 226 218 199
-1.42446027453926316 -2.43946814422154112 -2.94602179527282715 50 30 41
-0.00467810903095133845 1.9929825302056301 -2.80813717842102051 15 4 2
1.40368346562695434 2.17334750232067764 -3.10995197296142578 128 134 150
2.2196219976705196 0.47118542247834283 -2.53914356231689453 43 36 30
0.916853081097570244 -1.83441684887566026 -2.96369481086730957 113 94 116
-4.18721657907145772 -0.947082284358597426 -4.57110214233398438 77 81 82
-1.43909622706386853 -4.00469777602133892 -3.01591730117797852 144 142 143
-1.32093569078332074 -1.65617405814988783 -3.03113436698913574 55 59 86
-0.714062276718876676 2.37054967151348528 -2.84377598762512207 46 37 40
1.8361364105862199 -2.57946093706931956 -3.18193674087524414 189 192 199
1.30626114181669406 -2.85435970893906443 -3.16673493385314941 16 16 28
-0.364330157086299566 -0.0748651642739597556 -2.78809261322021484 68 66 69
-0.866332371128633705 1.42033156290581553 -2.65407919883728027 167 149 125
1.08098040589710909 0.95021799325141787 -2.91618537902832031 42 11 0
-0.688354765462128149 -0.0490299562356120711 -2.81783580780029297 177 172 176
-0.204927069661994476 -1.75536564687395202 -3.12207937240600586 70 74 85
-1.14076385392650481 0.639348603767006307 -2.87955427169799805 11 11 9
0.704040615066609199 -0.830255702776354854 -3.70185947418212891 150 85 89
-1.01774944550570745 1.92915423684879239 -2.60975933074951172 81 68 52
-0.402856879758762998 -0.575066283798755573 -2.90895438194274902 88 71 63
-1.46999156728265956 -1.23967774675828024 -2.71193313598632812 69 80 76
-1.06702650863540893 1.78742960022736619 -2.62740993499755859 59 53 53
1.19505238366158784 -1.03677608126708209 -3.5787968635559082 104 90 113
0.640033585377266734 -1.01369477519728646 -3.64798712730407715 153 69 69
-4.37522690349075738 0.525889280071903054 -4.6676025390625 88 89 91
0.699679647114083925 2.13770353426180737 -3.9663703441619873 60 74 101
-0.69649385698747146 -0.786212808060187562 -2.93978285789489746 130 127 134
-1.17771316890589706 1.14002112820167034 -2.78737807273864746 104 85 68
1.28349498888707325 -4.1274526552885904 -2.9929356575012207 196 201 194
0.930378702730154661 -3.13983806777124963 -3.3243563175201416 46 17 13
-1.25355620649915256 -1.29872037799175288 -2.76202917098999023 71 76 79
-3.82847320536994928 1.25136285308568529 -4.56966114044189453 159 125 79
1.01178871729215558 -3.17790990001176699 -3.32595968246459961 120 101 97
0.367109115407478037 2.31741766145929873 -4.40478277206420898 185 193 212
-0.149669619813653343 -2.97997784106585151 -3.10212492942810059 71 81 117
-0.506061651343027608 0.911829920714586795 -2.95923066139221191 30 52 31
-1.50095781705886044 1.28131261004879105 -2.67865967750549316 177 187 199
-1.54619225177206565 -0.891091647258399955 -3.08649468421936035 145 146 140
-0.784172389298495309 -3.49186093265585118 -3.2899172306060791 161 159 136
2.28149245783985899 -3.00838763185144309 -3.26479220390319824 104 114 115
0.759336373564393208 -3.47091108663313586 -3.38565254211425781 179 104 62
-0.0651651397996146908 -1.03432407425699591 -2.93333125114440918 222 209 219
-1.00546855524322853 1.54240703464342621 -2.62293696403503418 205 211 225
-0.457380280917392246 -2.42767926433348036 -2.97256183624267578 103 113 114
0.415699273747989984 0.297793627132391492 -2.98473095893859863 153 75 75
-0.800672258756490285 -2.37794290105500439 -2.95157051086425781 152 157 153
1.84346230201971961 -2.95909998446436973 -3.25045680999755859 192 203 199
-0.380403665046647577 -2.43092340329765033 -2.97955989837646484 75 81 95
1.49237236014017571 1.17869893047283436 -2.72118496894836426 238 126 140
-1.22411123618665529 -1.06892154232819703 -2.78248476982116699 40 40 40
0.257144929964257418 -3.68034896534122646 -3.41079998016357422 67 93 48
-0.93894921496246786 -0.298028535932995053 -2.6144256591796875 194 196 221
1.66271072410346621 -0.488432380941608235 -3.81559395790100098 66 68 81
2.33937474708573401 0.641511799325157339 -3.00475668907165527 72 72 74
1.037483477995784 0.505914656072980029 -2.92560029029846191 67 50 43
-0.617666265223566269 -2.27414354589748013 -2.90962624549865723 11 15 18
0.0762977724263552703 1.91337558738993319 -3.07918334007263184 14 15 20
1.71375773146537158 -2.88334706243006167 -3.24154353141784668 17 25 27
-0.204826161385846528 -1.75406463896492992 -3.12494277954101562 111 120 129
-4.83349229614400766 -2.11736633244153261 -3.80083966255187988 37 42 36
2.30036098031594349 -0.253780554683096904 -3.44021463394165039 125 105 107
-2.24343530589949802 -3.16463266248665764 -4.06234359741210938 81 66 47
-0.865208647283824517 1.24329379218421776 -2.6522529125213623 31 25 25
0.977349376228880518 0.843445047830354788 -2.55566239356994629 217 232 225
2.23950452794900423 -3.20064798261738703 -3.28006291389465332 34 36 48
0.27220573778299556 1.26129794746625579 -2.87110328674316406 25 26 28
-1.36416845683102128 -1.16776743239447933 -2.79876279830932617 109 117 136
21.6263267862462705 12.8934585096731151 -34.4678916931152344 103 123 114
1.1998422770800754 -2.08101586932066684 -3.32564806938171387 164 164 176
-1.16684542334284713 2.34001354743297707 -2.62076139450073242 124 123 137
-1.2002234463211976 0.239870852577441895 -3.05446815490722656 80 29 28
-1.11734683151792025 1.16602459402505754 -2.69343113899230957 127 102 80
-0.204866312090465907 1.83246363556799352 -2.83564066886901855 12 16 17
-4.10587666109604665 2.3455640835867051 -4.16117048263549805 152 153 157
-0.695579965523982269 1.24858967281230648 -2.66601920127868652 139 141 102
1.87955799903392862 -1.86633339314987223 -3.39885258674621582 139 147 160
-1.45178536154145599 0.00911793791905002315 -3.19216322898864746 53 57 43
-1.21072746635307782 1.91999439255510662 -2.61197233200073242 96 106 165
0.343773777362101629 1.44542487306693079 -3.06359958648681641 16 17 21
-1.09548888160865099 -1.71986782008395922 -3.10869145393371582 67 47 22
0.632217647201244071 -2.08879641561900176 -3.02362227439880371 51 37 72
-1.29140583794337926 2.17479860510886036 -2.59608578681945801 185 191 207
0.587309470564067793 -1.33399834685827812 -2.8621985912322998 25 24 19
1.11380177153798487 -3.41964717587235345 -3.43460774421691895 186 116 54
0.0735992097198529815 -0.0979489605840900973 -2.74865579605102539 187 184 191
1.87389862779924998 -2.85412129185574059 -3.24157023429870605 52 69 76
-1.07858750116095559 1.2322299799760299 -2.64899992942810059 58 42 29
-1.09870548848277871 1.48273432395634508 -2.63634061813354492 43 42 48
-1.52223618498885016 1.99078777832989107 -1.98846805095672607 205 202 197
-0.977550222907755284 1.90169912102670047 -2.61133289337158203 82 82 84
-1.05733743380367518 -2.72407600024094565 -3.03830265998840332 81 53 41
-1.55704602294799543 0.500249175411328628 -3.15170145034790039 22 44 21
-0.542783631351014928 1.8012150104917628 -2.69891881942749023 68 134 210
-1.02816623968305532 -0.0865974261240702869 -2.54021334648132324 49 37 39
-0.626379243192262569 1.47439541800278962 -2.63405823707580566 193 172 117
-0.617819826353745549 -3.67954405592119294 -3.24193596839904785 91 99 84
-1.35332874692679272 -0.0466071883887343441 -2.75033831596374512 39 49 40
0.825468181269899626 -1.28849942710876664 -2.8796849250793457 83 56 65
-1.23282184641734771 -0.127520759128577355 -2.6446385383605957 57 65 67
-4.11703415392604999 -0.549517854982025877 -4.62472820281982422 157 161 160
1.53298523186081925 -0.448541776571515782 -3.32938313484191895 68 77 92
-0.269121261786653188 1.05646773047460796 -2.9174954891204834 17 22 16
0.512854704888370705 -4.24868783701885455 -2.90247488021850586 162 172 171
-0.153510017321073722 -2.98641716409101443 -3.12013554573059082 71 76 114
0.524443458948355534 -1.46047743152318632 -2.83183765411376953 48 35 27
0.866945354922234235 0.897338180867653712 -2.95421910285949707 96 90 54
-1.2503127805698071 -0.234573660893634073 -2.64923596382141113 148 144 135
-0.449167010614183793 -0.0419068618652279623 -2.79610037803649902 95 90 97
1.73730187592033047 -0.349984738134419548 -3.08169007301330566 107 95 107
-0.794877316548067037 2.0289500971111174 -2.61094474792480469 39 33 35
-0.677209766853235307 1.17751137174552589 -2.67596673965454102 206 210 211
1.6842637881176552 -2.17104880198258599 -3.19928789138793945 154 152 104
-4.16708925061453428 -1.60349208378290498 -4.94861793518066406 146 147 149
-0.0520365277349938427 1.25615955427912596 -3.06818675994873047 25 30 36
0.0956310434743559701 0.854093414989413269 -2.6112825870513916 241 126 79
-0.511854569729396025 1.55040849469613118 -2.84819173812866211 40 30 18
0.380016931968573779 -1.32041925319453646 -2.96591496467590332 122 127 133
0.139262649671594296 -2.17563312152453436 -2.92868995666503906 206 166 167
1.64447291937015661 -0.463736664423824219 -3.42361879348754883 83 94 116
2.37741155443026608 -2.36333000492127177 -3.76441550254821777 42 44 41
-0.244582307120673859 -0.995561211881828223 -2.99657297134399414 68 42 17
2.24153769259845825 1.06500838153119282 -2.98810982704162598 111 112 116
0.153541477846213636 -0.233987417207002474 -3.43132591247558594 31 15 15
-1.68562444066340511 -1.87719965282055323 -2.3805387020111084 204 198 182
0.0118186646021458674 -2.57019215175947568 -3.05575466156005859 10 10 12
0.0393795424129234073 1.83080879511894468 -3.21883583068847656 10 11 15
1.77330960730774723 1.49660276264246606 -2.86954069137573242 156 150 150
-0.872598937298563637 -2.68308246039485843 -2.96471810340881348 54 49 56
-1.31662377332031344 0.0993368634310283771 -3.0737156867980957 90 61 43
-0.569788267285521899 1.65409519378426628 -2.64127278327941895 65 104 159
-0.906902136026543682 -0.0774426282442466918 -2.57858467102050781 66 51 46
2.08387498016705486 -2.38449287805046239 -2.85331368446350098 15 24 19
1.40817300136333623 1.43295572374928071 -2.76754117012023926 103 75 51
0.50964290975714599 1.72776625425149977 -3.76989936828613281 39 42 47
-0.665168881802463363 -1.15775738537794104 -2.99821162223815918 159 157 158
0.627222336670470781 -2.12458174579938186 -2.97264862060546875 206 209 216
-0.981037897178612228 1.17178275546877519 -2.65542030334472656 60 50 59
-0.814516981462285239 -0.957461593294979485 -2.72302770614624023 162 161 166
2.40055113172053325 1.31972703285866499 -2.84311127662658691 104 108 109
-0.862359636384880557 -1.89895361986005962 -2.89583039283752441 46 45 41
-1.02911347880139248 1.81949341560628453 -2.5897834300994873 123 99 87
-0.672930061458066664 0.204425821886601022 -2.7280890941619873 95 66 60
-1.28645203556029464 -1.00526004909050726 -2.77718329429626465 43 49 49
-0.038425669150855879 2.01824371859989427 -2.67453479766845703 161 170 185
2.08106984020781205 0.996755082490501487 -2.88869380950927734 145 155 165
3.13117217880053378 -1.28594723983107806 -4.19538450241088867 152 173 166
-0.765300819995911263 0.933488913768356188 -2.69565391540527344 129 147 71
0.947200356959594592 -1.1622982670827271 -3.32046890258789062 64 129 197
2.25349001883079625 0.7347524744271825 -2.95142149925231934 111 118 126
1.72158541842824575 -2.78019314029250486 -3.20847630500793457 70 87 79
-1.36390545178669353 2.90059929632812041 -3.59863042831420898 36 30 34
2.12792623533578906 -2.98983395915388295 -3.24083328247070312 51 48 59
-1.70224663002656129 -2.12141844499557042 -2.93026924133300781 65 67 66
-0.0594427961670134231 2.17686391409787028 -2.73361039161682129 173 175 190
2.07164878852978873 -3.32772706228872917 -3.3172299861907959 29 25 40
-0.928892078389749631 1.9944156942291773 -2.63121843338012695 52 51 59
-3.83620276791664594 -3.14892320862337538 -3.94748902320861816 130 123 117
0.443779082424250293 -0.975019698766750209 -3.58914685249328613 218 135 121
0.731793438272027141 -1.99617996193914338 -2.9793250560760498 126 101 133
-0.357985978430074125 0.38042728494736 -2.92940521240234375 28 46 50
-1.55668744346153876 -3.18419675237912658 -3.12020158767700195 115 66 59
1.00779248763242424 1.63099467484026328 -3.03641891479492188 38 36 37
-1.48618674616552737 0.793665732079574471 -2.21239662170410156 85 61 51
2.08311400284353576 -2.99571663749916661 -3.26088428497314453 138 139 131
0.1753042874078104 -1.34597109297582374 -2.82366085052490234 120 121 125
0.107164184656499684 -2.48395557835906677 -3.00882315635681152 139 143 155
-1.61215940143237213 -0.934326839006707432 -1.86407899856567383 24 16 13
2.1220849727862463 1.53979889214051924 -2.02805566787719727 143 152 149
-0.682810869024589095 -3.25477373202888964 -3.14346146583557129 63 71 94
1.01261257679887762 -1.52960117185549693 -2.70581769943237305 40 29 23
1.08323522255093407 -1.94974941533713197 -2.98952341079711914 145 118 163
-0.203481875211017904 0.382947170568222528 -2.90133953094482422 156 153 136
-1.35123767457247856 -0.00960589242494469531 -2.81253147125244141 13 11 0
-1.45948322952832399 -0.0832018666530828788 -2.61689877510070801 39 45 45
-0.978122041630237193 1.85475212948484836 -2.58956003189086914 72 73 67
-4.32259708009271293 2.17964599391717506 -4.34951686859130859 105 108 113
1.12907166303617124 0.738078570063890105 -2.55125045776367188 153 210 175
0.449103951842303784 -2.0186584664489593 -2.96401834487915039 136 105 147
-1.03809689909753167 -1.84693983899962455 -2.85348391532897949 38 37 35
-0.568740761793002481 1.71584555810891559 -2.64739203453063965 64 55 56
-0.341841840682278242 1.65202917439957497 -2.88344836235046387 89 113 99
0.468831816118327915 0.821418606140648322 -2.43420839309692383 122 172 147
-0.409842133161912314 0.684143639206894694 -3.93646907806396484 34 39 45
-1.13678313332361736 -0.504188980049080082 -2.72176814079284668 11 10 8
-0.961983412248213376 1.09090725875988515 -2.64660310745239258 151 141 150
0.391961555298765862 0.887520703717937121 -2.52504062652587891 154 213 169
2.17548500443266191 0.0676061214267983379 -3.04929351806640625 66 69 74
-1.54163960189181082 -3.53287193250628295 -3.21677756309509277 40 51 34
0.036150419344909035 1.24552201889507308 -3.1054990291595459 38 37 51
0.766592218516157775 0.9625521495385716 -0.456361263990402222 92 96 108
2.80715958873769189 -3.66365449907531548 -3.42377185821533203 82 45 29
1.46461635143610103 -1.23732100893491626 -3.2040245532989502 66 58 71
1.57818082884544708 -2.56615792050048697 -3.11450886726379395 167 163 136
1.71412679229952358 -3.43491038427373674 -3.35622024536132812 38 50 46
-0.0424912551378361369 1.09402735260882689 -3.00651979446411133 29 19 28
-1.22577796865211708 0.142611668996185381 -3.06704926490783691 76 45 27
-0.512285074965693865 -0.986153471719193764 -2.97627782821655273 31 20 36
-1.16263639677898722 0.153137721799457616 -3.04518795013427734 27 12 5
1.03983519110830303 1.69537342509220856 -3.40368366241455078 58 58 60
0.230288474545908506 0.24910288615942594 -3.0092766284942627 155 153 138
-1.10112562741812359 -1.0195579281517444 -2.71751236915588379 139 142 149
-0.367671369874829512 -3.1295646260925114 -3.12175679206848145 88 52 28
-0.738917046471910477 1.87517701549151217 -2.63665890693664551 118 160 185
-0.30424313488725413 1.65366992105972943 -2.87967085838317871 71 89 77
1.21896203381496271 1.33031801188661869 -2.71355938911437988 158 147 143
0.592490665052358256 2.06965778083636653 -3.85987210273742676 45 47 60
-0.753705422921598256 1.10636984318020892 -2.67763948440551758 98 109 67
1.27274979159594448 0.921831559477042095 -2.87538743019104004 162 135 116
1.06233829949468506 -1.22500581427802047 -3.2059178352355957 85 77 88
-1.2429332666093702 -3.69246553884593975 -3.2264559268951416 49 65 81
-2.41468705121511373 -3.11527259914458465 -4.04904890060424805 20 20 12
1.87678895807013291 -3.10170066527722721 -3.28850173950195312 68 79 81
-0.818809810336021293 -3.86912897241641573 -3.20856046676635742 117 138 105
-1.25167030174713023 -0.05038256926876028 -2.76506996154785156 42 30 14
0.881160118758039013 -3.02577611055566997 -3.35670709609985352 78 65 74
-1.69121507536258253 -2.35370529742199253 -2.91485285758972168 130 136 134
0.296009840917754841 1.85399406620544926 -3.4423377513885498 33 37 46
2.1550625941769681 1.06812025251706677 -2.98485231399536133 121 123 135
-0.357997234228618122 1.56517292949271747 -2.87853026390075684 72 70 75
-0.396697091707084004 0.413062490064444454 -2.90310001373291016 128 129 115
-1.52708175290422909 -0.162856451485296261 -2.61117458343505859 143 143 135
2.27528786562222551 1.27713029615123785 -2.85321283340454102 106 111 115
-0.964224805278478758 1.43631162369321852 -2.71597504615783691 212 192 95
