ply
format ascii 1.0
comment VCGLIB generated
element vertex 770
property double x
property double y
property double z
element face 0
property list uchar int vertex_indices
end_header
-0.373832319917970168 3.23865769968988859 -7.67258453369140536
2.15651859580360972 -1.61935398836081279 -8.99997138977050604
2.98829429063401308 -2.0173984914240588 -8.35991287231445135
1.35453436798693949 3.39358444802828974 -6.89587402343749911
0.366537308371337578 2.55924368738341812 -6.6380286216735831
-1.88557715937286763 0.113989730378102547 -6.3229193687438956
-4.28358939850403875 4.30244491213464997 -6.59682559967040927
-0.518058896532450075 -6.72823988504681747 -7.2640967369079581
3.69315270829070741 -0.416836606720737413 -9.70910453796386541
3.42595785018433929 -0.961478430360391378 -9.21530818939208807
-1.88688671845634937 1.95166246226735973 -7.34491777420043856
-4.5460499475273437 1.94045094577148225 -5.04312276840209872
0.751354232034699643 4.22830679930401043 -9.82893371582031072
-2.61888752349272336 -0.207062368336045244 -6.43916034698486239
-3.88668587233525775 1.09825969349155983 -6.2574748992919913
-3.44332462793405814 1.86293703969427771 -6.67645740509033114
-3.8148539397566994 4.29905729968071881 -6.64489078521728427
3.26295713288140554 -7.49187869706957787 -8.04447460174560369
2.29374107188583665 -8.6246427353237376 -8.39006137847900213
-0.704970649780232606 2.55566883311947946 -7.06354045867919833
-1.31597390467485065 -4.56424610992040591 -7.65931177139282138
-2.85357101228224508 -0.952287031989254462 -6.55061340332031161
4.96603046099863388 -6.8800463623498791 -8.29250621795654119
-2.71038485565786091 4.26459416076864617 -6.50980091094970614
-0.960855880211604396 -4.19255321338235198 -7.59156179428100497
-2.06056525085539288 -4.93198247391511746 -7.03148317337036044
-3.62319539559702442 0.333093141185875741 -7.57278871536254794
0.106957602215631178 -4.06571190309417307 -7.64312267303466708
6.21009217621698895 -5.11932717919869429 -7.97648286819457919
-7.98775952677052636 -8.59385360585701541 -11.762661933898924
-0.433336134344304846 2.11841887865602141 -6.45626783370971591
-2.51565574305394257 -3.20661642629532073 -6.84492063522338778
-2.57277020207095042 -0.584487799297237043 -6.52229976654052646
-1.90293041933080365 -3.30443128899778893 -6.75991725921630771
1.57669236951958558 -7.83114947033322295 -7.76552629470825106
-2.38374643679145759 0.43023315529583589 -7.60776853561401278
-0.557001577322767005 0.865472239789058739 -7.30826950073242099
-9.21305659531457621 -9.87030363422475432 -10.935574531555174
1.318491569957426 4.9702610308964088 -8.07336235046386541
-2.33055000615120411 -4.52857365145871515 -7.55748414993286044
0.0846716055303911447 -4.00106424353665879 -7.63102245330810458
-3.37849654389949094 2.32610785016742394 -6.54199314117431552
1.9404449592412143 -4.2690922071722861 -7.24392700195312411
6.1347135983783696 0.0763107337694547139 -7.82075214385986239
2.71423035346243235 -1.85167749787045288 -8.245358467102049
-0.611083084778656249 -3.10706108223761612 -7.44105482101440341
2.2061483564992006 -1.37279326216257824 -9.03990936279296697
10.7175865423362424 -7.12022441328562383 -13.0457229614257795
3.63001946581387092 0.295528590636430222 -10.7336149215698224
1.03476296787100952 1.43248663468023985 -7.25749921798705966
-2.03125018126362455 0.623408440234189953 -7.99043321609496981
4.34367906351470801 -0.166740115897962893 -8.19244956970214666
-2.99625605714758025 4.52096403591518836 -6.60455036163329989
4.2331391309261388 3.40363811321463094 -7.24193239212036044
0.746289312946127659 -7.88009450263141176 -7.7099289894103995
0.305062526740886297 -4.63983372178594244 -7.11709308624267489
-0.432085828956976836 -3.87064700604744649 -7.60495185852050692
5.01716475242939808 0.641101400041999447 -8.472561836242674
4.92270459250708381 -4.09514667990755754 -7.53921699523925692
1.26680044284243976 -3.77692065788074327 -7.03889369964599521
-0.0213963208562411474 5.40719555368182903 -9.43612575531005682
7.50022775498199934 -6.11753101877242944 -8.09964847564697088
-1.40978824355076204 6.71798277361164864 -4.85351896286010653
-2.38709331740681741 2.49663669103182917 -6.68283033370971591
-0.44531685222457823 -4.29251033244435831 -7.62408590316772372
-3.54233976142155038 -0.768272162019353555 -6.53348779678344638
-12.0967302950196167 2.92648812373881739 -11.0064287185668928
5.06107288079355033 2.04410893692571172 -8.44505214691161932
-2.67008551900909419 -6.59693420871054048 -7.32700443267822177
-2.47630111782981732 3.07537651249231692 -6.66127729415893466
-9.32476315121347454 -8.71780260316370992 -9.63509559631347479
6.55601213529585181 -4.22262370306779378 -8.0262260437011701
-0.723639403751455079 -5.43778945047684203 -7.10672807693481356
2.36572146912627002 -5.31969721796283057 -7.32213926315307528
1.38857208180766589 3.03261993427570031 -7.55116510391235263
-1.83973302556233831 6.05180759555963643 -10.5030946731567365
-3.43966569705436909 3.04282934371720426 -6.58471345901489169
-0.437465506393113268 -7.45554381257210608 -7.52318620681762606
-3.63778065431203768 2.46119635779075097 -6.62107038497924716
-8.78197142206527914 -7.83975906300969783 -12.1481981277465803
3.00457803586881234 -8.38430679230707199 -8.41009712219238104
4.57722812209620766 -2.20334221735425695 -7.67729520797729403
-2.489105750107659 -2.05264473636336309 -6.69176435470580966
-3.70071136442022031 3.71105326427829763 -6.53262519836425692
2.93622774755069793 3.97132498999006867 -6.83634567260742099
1.60745987926331591 3.753529915540327 -6.8099346160888663
2.61143337611027704 3.38035091727176473 -7.10032367706298739
-3.12661818533762847 3.59864525117882117 -6.77514982223510653
2.07118648705852193 6.81130596357924034 -8.62084293365478338
1.11371006799329986 -4.28279801733551224 -7.54620504379272372
5.52489307784732908 1.01430466180740564 -8.56925487518310369
-1.19919331637027837 -6.61432156230944202 -7.2225170135498038
2.62957961425384523 -0.104256290208929375 -9.20990562438964666
2.63482323444029864 -5.18181194311315263 -7.33452224731445224
1.0997397442314043 4.14070727950539919 -7.91551828384399325
4.14478489010834394 1.47196607669051582 -8.49477005004882635
-2.73735702571592254 3.72654968994348579 -6.62838745117187411
-2.22358388689554465 -4.67797667469397283 -7.64673757553100497
3.85439639479002327 -1.84735801616300854 -7.88615655899047763
-3.34418303200039801 0.449014081305360135 -7.54864501953124911
-0.424255496391591269 -5.65742711971869205 -7.31682300567626864
0.449798044769385841 5.49351341010738814 -9.79417324066161932
3.82837629156730941 -3.53914408447676676 -7.75540399551391513
1.5423759143489042 3.55321177365718688 -6.88257312774658114
1.23209877983152927 4.12921368574884617 -6.97721147537231356
3.12434674561024517 4.93957014608241973 -7.26763105392455966
5.72122843121351732 -0.458257131668608764 -7.96725749969482333
1.45200476330679806 -8.81375501157968522 -7.93525171279907138
1.10050302703308556 -6.99394676508825786 -7.61761665344238192
0.800723884293124355 2.69483715556812875 -6.14714193344116122
2.03818085007143379 -1.80341678737152167 -8.93672275543212713
2.81799034763280343 -3.96193815304053532 -7.31025743484496981
-1.03972634820321375 2.79115249257168996 -7.27518892288207919
-3.16088464107958789 3.92885329123615312 -6.56826400756835849
1.40559454474403767 4.13602923604927941 -6.87859821319579989
0.31306787896160776 2.39691731548050591 -6.1538987159728995
0.446782332433380114 -7.67596262418286823 -7.65866851806640536
1.10554781429236448 3.14500597039639684 -9.436001777648924
6.33789835122917911 -6.51861908534674139 -8.10163021087646307
3.03086378152083524 3.8665572543220641 -7.037642002105712
0.0938685380745240827 -2.99826091169193321 -7.08353710174560458
2.21811232414342685 -8.9932569830148239 -8.2371177673339826
4.48094762461207097 -2.31818755804971177 -7.59106969833373935
-3.94545951399013761 -0.134095925809283451 -7.37956428527831942
4.25933281674065523 1.88743687314232211 -8.78716087341308416
5.35388241697868139 -4.40463945451688677 -7.61209344863891513
-1.09745517043065743 -7.57495381803776979 -7.5238628387451163
1.15014399950646218 -6.22522229014120754 -7.41938877105712802
-2.67404636772811966 -2.69995130312721976 -6.78350210189819247
1.35345215523047413 -5.23740963419940897 -7.34575176239013583
1.25167819979778905 -7.74894296306018315 -7.76113510131835849
1.85302889853867536 -7.97600239938388089 -7.90383481979370028
3.59364735042734029 -1.578283394070225 -8.726101875305174
4.18730994435151782 -0.300616693878045349 -8.70860862731933416
0.907474622934112407 7.54672302302763232 -5.84304141998290927
-3.28508921899144379 -0.760876184908598541 -6.63938570022582919
-10.010399353495945 -2.10723454132902166 -11.4923696517944318
3.79356843543562583 -5.75962002000421247 -7.62395381927490146
7.60553180491120795 -5.83344042892972503 -8.13362407684325994
6.09279435823404114 -6.28550214677528807 -8.1284141540527326
-2.28001628647082555 0.506585195561708668 -7.66266489028930575
-3.20814089356656007 4.31446765456469183 -6.59851789474487216
6.58798780746057311 -7.65426096868227823 -8.4621086120605451
-2.46754604560667845 0.442434497492583012 -6.67956161499023349
3.19680658804549722 -1.65016936621966925 -8.727261543273924
-3.70261959195059687 3.95413197164240549 -6.53334093093871981
-1.30940788533926167 -4.6992367976388314 -7.65724563598632724
4.84456115252234376 -0.786316530887546161 -8.86863517761230291
-1.48436456936319616 5.22403903215248544 -7.75732755661010653
-10.4588486504423468 -1.86641693875497161 -11.0394725799560529
3.92546681351221283 -7.84727547549102944 -8.312924385070799
-2.15203644701584551 4.27742860876468445 -7.87485408782958896
8.10420602846105176 0.0842920859465336875 -9.23246288299560369
1.07296598612326832 1.40689278356001712 -7.43084430694579989
1.87870981004998683 4.57881672496314707 -6.98949337005615146
4.11797980094226457 2.42560115519539687 -11.659721374511717
-1.38883318946789958 -5.80745409048848504 -7.24801826477050692
-1.05757009676770508 -5.67102121977537088 -7.14824438095092685
12.7999099422030405 -7.60377022214835208 -14.2962236404418928
9.24239349032722401 -1.41167543004294482 -10.3993206024169904
6.9511279595646327 -6.30582866015777199 -8.10985374450683416
4.15909852191672691 1.57001429647059099 -8.75668525695800604
-10.6723435764459484 0.47883501417267027 -10.6294956207275373
-1.75821619139504803 -1.87544917215066986 -6.59388160705566317
1.12210676776492924 -5.10140438833094567 -7.26959228515624911
3.85164286763164343 -6.40533474073501452 -8.03674983978271307
-1.0919630642845819 -6.88887765009469533 -7.23178100585937411
-2.41627979773455293 0.361504895050003217 -6.72927999496459872
-3.35363070930549956 2.01817024483684859 -6.65538406372070224
-0.282167142471413446 -2.07203860205094559 -7.3901195526123038
3.76855137211159308 0.320775542493624055 -10.1292190551757795
-1.37081982496252675 5.33892014725718411 -9.68466663360595525
0.692749643969199469 -5.17161036585293132 -7.23088312149047763
2.13332152613490988 4.2461872157354339 -6.98027229309081942
-0.240989085923903668 2.3638203905913806 -6.13894653320312411
1.87028670677873965 -4.60945718741717325 -7.06838655471801669
3.72767893832136465 -8.03282963620025292 -8.35470104217529119
-3.11487183873375262 -3.04123563652960627 -6.79727077484130771
4.60642575910960517 0.00455723213762047798 -8.61107349395751775
2.83808952107168189 4.52234459250214016 -7.27289056777954013
1.27113058378107069 3.33185877542534392 -7.67663288116454989
3.73996346758918641 -1.67584453576571812 -9.164608955383299
4.5814772029248152 -4.30585648146200395 -7.50446224212646396
2.90693024266550148 -4.65519375608399244 -7.28285169601440341
-11.3072038882175043 -0.53223906214835659 -11.3123893737792951
-2.00223559137407037 -6.46337500895794204 -7.21972799301147372
-0.782036760094173999 -6.7604508896318487 -7.21173810958862216
7.31429173502340024 -6.04944261245135095 -8.0597953796386701
4.4247007220170218 0.022256950278001144 -8.77089786529540838
-0.964324505947247168 -7.92151706764700414 -7.63865852355956942
-0.680930522238338387 -2.26193283145329005 -7.29553461074829013
-2.27204427021032807 0.485445907019432965 -7.06809568405151278
-2.71447348401347988 0.351281931481384535 -6.60034227371215731
-0.0358684187213432412 -8.80773546726403112 -7.79956340789794833
2.92562556169413934 -2.12347930410554486 -7.42548608779907138
6.88939598928159391 -5.36735976861036868 -7.96632289886474521
5.88927593091960144 0.852040977267862765 -8.78049373626708807
-0.321014515138670631 -2.35870263729749885 -7.3735785484313956
1.14105307513869225 -7.4291917748687144 -7.55304145812988192
-1.39621121125554049 -3.80071018752648548 -7.00046157836913974
3.34592910753608797 2.8900943869729141 -6.3194260597228995
-0.930770315150366345 2.71137651726115125 -6.322737216949462
1.47230003756622474 -5.64407535619245326 -7.3124065399169913
-2.46866028640466739 -2.58040260567139201 -6.77279567718505771
2.78518419449160204 -1.84432664768239363 -8.82762145996093572
-2.10820645215225078 3.45480705433247559 -7.06726503372192294
-2.35227970283407961 2.53812345458084643 -6.72806930541992099
-1.47498563508216041 5.01099010352985985 -6.97670030593871981
-4.46180369518424857 3.92612848318457086 -6.5566539764404288
3.66585718384557246 -1.93001023506856662 -7.68240690231323153
0.79610391796309532 -0.742848694825244071 -8.5227479934692365
0.966710028446017389 -7.25632364043676681 -7.62909078598022372
-12.0562847769275674 -0.189474413978979961 -10.5330400466918928
-2.0218576640178072 -1.52724902843786614 -6.45585060119628817
10.4440896110877937 0.413604912808497649 -10.3864917755126935
0.375127182495510747 -6.04437135238326917 -7.29441976547241122
-1.56546435851029098 4.93009747975289248 -6.90592861175537021
2.7577534171550373 3.47475642844913457 -7.00344419479370028
1.33109449808811386 -8.31473451649993045 -7.76578521728515536
1.07682449726066642 4.32204509748332022 -7.8769817352294913
5.23221990261688319 -4.5567000451487738 -7.60832929611205966
7.14786420106557596 -3.33258600642724678 -7.30073928833007724
2.1298532800213561 4.20317411754487047 -6.88950586318969638
4.63675535540333339 -4.08488295257971767 -7.92807769775390536
0.190645965594839539 3.6482943387786233 -7.42460155487060458
2.9057056029744972 -6.24493832477987976 -7.57754611968994052
-1.65932632683529491 -4.40924088604988462 -7.54610013961791903
-3.96859222221050389 1.85292990068868879 -6.65238428115844638
5.36267375496608434 1.42329565100455313 -7.65436172485351474
4.25563941683041769 -7.58902167884575185 -8.321774482727049
0.148867961658744552 4.76353416928103002 -9.80284500122070135
0.368575899761226178 -5.75347684843174356 -7.27893686294555575
-3.60182015656580212 0.244352806759857655 -7.73821115493774325
-1.203602877912334 1.01473679577721376 -6.98012113571166903
-4.0038348525207148 3.73181860319803205 -11.9602260589599592
3.88477440795092921 -5.6092264725809029 -7.82248544692993075
-2.23979468725943454 3.47636191264602301 -6.97924804687499911
-3.40220510111582231 -0.897984351291312044 -6.66774559020996005
4.67307711087371214 -0.714840067618998543 -8.19059562683105291
-1.16339930391178914 4.90645330309847338 -7.59632778167724521
-1.52059833045304749 -5.43279607143579657 -7.08964538574218661
-2.50268760790767031 -5.08403040567893427 -7.40023946762084872
0.314293696444949699 6.66406271158562991 -8.98305606842040838
0.439553840502799664 2.45909410503825354 -6.04427528381347567
5.40089118557892345 -8.32377451656019574 -8.62203216552734197
-3.6617578245894018 -0.88867863164868055 -6.55311584472656161
-0.403810868525864841 -7.64403370385610526 -7.53419017791747958
-9.44057055879030393 -8.90450254837442756 -11.8299970626831037
-2.18005027126427153 -5.1093993558057198 -7.03822898864746005
-3.17350077049262058 -2.84184955615632795 -6.76683855056762606
-3.74126458313175814 3.18954478170105649 -6.61104202270507724
-0.990793653575919087 3.46517710742276197 -7.65509700775146396
-9.99479872077716536 0.0898635231656958189 -11.3483228683471662
4.3114011675088415 -6.78647847800691473 -8.16690158843993963
-1.95660906363148035 -7.71276701086550442 -7.51507139205932528
-2.86332269596553868 2.06719110370805126 -6.66175460815429599
-1.73143000527584245 -4.3218009207049306 -7.52739000320434481
-2.30605504633300695 -0.741934957847516841 -6.41687774658203036
-11.4715736035040656 -3.16916498933943469 -13.5131530761718732
2.02733205651535187 -1.04616112126630489 -9.37467288970947088
-2.29548116564420246 0.295713280062200545 -6.32982015609741122
-1.5001082277344604 5.46815103632433708 -9.35245513916015447
-1.08017592403534923 4.67444347142951244 -7.47254848480224521
-2.72492830299762456 -0.821293519540196582 -6.60986614227294833
4.3987781986769372 3.89788780701445825 -7.37863683700561435
-3.9690333719542088 4.79812593291648071 -6.98441267013549716
5.5200721630417906 -4.51679001173502659 -7.66773223876953036
-1.18886789800638715 -9.25048622058108094 -7.88447713851928622
-2.48780013643985898 -4.58153033843604085 -7.55440378189086825
2.18555214909692364 3.14447931556385463 -7.20574474334716708
3.06355667390044584 4.24575773485778285 -7.00310659408569247
-2.98360537264644332 4.23175944695848383 -6.59479141235351474
4.0151404244085489 2.9952064364579174 -6.27853298187255771
-1.60905717436560036 5.292012561947816 -6.90053224563598544
-2.44793423201651095 -6.96229336549269195 -7.30234098434448153
2.84617715327525111 -1.84822165094840551 -7.84841251373290927
1.7689163344114418 3.94631266469083331 -6.31572771072387606
-4.2843190014281971 4.36494014327190971 -6.57500553131103427
-1.13875427849341593 -2.78885965714927098 -7.27581453323364169
-0.538036853594890618 -6.68389308910886282 -7.24159955978393466
3.49846011143058933 -7.52196076432733829 -8.19906616210937322
4.15902248928791796 4.72339099491407666 -8.51180839538574041
1.50210350642343871 -6.99292272535010273 -7.64608955383300692
1.99710061165562092 -6.7586365606640566 -7.5766119956970206
-1.96430753673556513 5.12056266153653716 -6.88419580459594638
4.91107754616869041 -6.44426539729968528 -8.06021785736083807
1.18022857617281973 2.6781318980521327 -6.15109348297119052
1.95580374131555623 4.44272125302891574 -6.96750211715698153
-2.22960510493851105 1.6326739083358508 -6.64038324356079013
-10.2998186682404054 -1.89845707007561559 -10.8954772949218732
-2.40035531103219668 -7.83301753466490958 -7.49299287796020419
3.82436120622764264 -1.59536724124729545 -8.37319278717040838
-3.32494725303671723 -8.65440211019959094 -9.91679573059081854
2.07109064059709658 -8.05992368507873813 -8.16634273529052557
-4.10599520756227943 0.75188950448092573 -5.57781696319579989
-9.86373540306572671 -2.53007551467671732 -11.2922344207763654
5.16336695963362668 -6.61994491114250661 -8.2472343444824201
-1.93487435519977935 -6.64127766212690052 -7.23175907135009677
2.5203546926256033 4.33177068627961059 -7.11063814163207919
3.56796089085190937 -3.76690719733557122 -7.39707374572753817
-0.679031770549958558 -7.11094520505406891 -7.47109174728393466
9.43131337817152193 -6.88026794660014396 -8.89513587951659979
5.18631637644412358 2.29386535745248743 -9.46686077117919744
-2.46692650080787157 4.4942348085223065 -7.30152893066406161
-0.077424490078282629 -3.05292349305648081 -7.39613914489746005
-8.92498015931110267 1.41028220634165979 -6.34294652938842685
-0.729258718977780163 2.7489619114036814 -7.01249027252197177
4.72333380727770535 -5.62439600540951279 -7.79703998565673739
-1.08274791236952961 0.141605870181095106 -7.09466505050659091
-11.3073570783566186 1.77897753053773489 -10.9074926376342756
2.83969996954455661 -2.10405206245157572 -7.59659433364868075
4.78249687803348067 -4.88220274353456585 -7.58442926406860263
5.60529672408955815 -7.95821527784852556 -8.47625255584716619
5.00657135160270439 -5.75370213110831408 -7.82177686691284091
3.14222886820528879 -4.28910282314354063 -7.42221403121948153
2.81604916038553066 -3.98692871297162599 -7.36141872406005771
-2.66307620377540344 0.415705586783146674 -6.88198232650756747
-4.41601293613386492 2.38065231581438264 -5.72606801986694247
-2.09531326780462557 -5.73007581624704887 -7.11035919189453036
7.62446570396661549 3.1873890229819235 -8.43552970886230291
1.42875882593500836 -5.26225804465370306 -7.26514005661010653
-3.22221727882790931 2.41584823171211305 -6.62481975555419833
-4.85415191573432114 4.53203208296074411 -5.40057277679443271
1.36995325577706373 3.56969353395466804 -7.69402742385864169
-4.17413986398383585 5.49933247895045074 -7.20201015472412021
-0.542955210621106188 2.19991122887114843 -6.18110561370849521
0.426068868946571422 -4.33353919910064089 -7.7227001190185538
-3.41516242348870147 -3.74926129416177467 -6.64417600631713778
-3.09192052889538394 -0.835087294681225667 -6.52579689025878817
-1.91697484728278322 -4.86259160347611541 -7.64799404144287021
2.46323036879025237 -4.24586416358008467 -7.30271387100219638
3.82273675964927584 -5.69549064779835224 -7.64237546920776278
-1.28488265058785234 2.81230148600900387 -7.55621576309204013
-9.8071366586674209 -8.31696789066848297 -9.77024841308593572
-1.99475756128645609 0.573139516723041087 -6.52008390426635653
-2.71679818340126911 -5.84785835057017156 -6.209181308746337
2.4104548046541372 -5.74756460041535711 -7.45503950119018466
-1.93696139544169199 -1.61893033248371077 -6.54209184646606356
-0.974957974973199915 -2.6971477873134817 -7.34812545776367099
-1.38218050850210505 2.56249549323092163 -7.60448408126830966
6.58907685247532182 -4.03687844155060382 -10.042325019836424
0.0135549982253777949 -3.95590352099645193 -7.62620162963867099
-1.70416248982087648 2.31889848424988365 -7.2636237144470206
1.07985623646057838 2.89272977092595607 -5.95859432220458896
1.28569442728897765 3.61975780256384727 -7.0098247528076163
-2.22173165926996674 4.59883731047229372 -7.018507480621337
4.73525256695434482 3.97269830002548785 -7.37341260910034091
1.55917049638338057 -7.63190832078255621 -7.75633573532104403
5.29888668022029652 -8.35747457454900378 -8.59127807617187322
-0.0319692267594557239 -6.23664238221051459 -7.24498176574706942
1.58208288218930648 0.155439577630011178 -8.85831356048583807
1.18028833412707956 -6.93469158823794096 -7.76384449005126864
3.99458562814438434 -8.31500261325565226 -8.4288902282714826
3.79043970622938753 -1.56592686109879664 -8.73786830902099432
1.36268943654989982 3.45142003243679341 -7.09366416931152255
6.08239299676942746 -4.70172472610383885 -7.84172773361205966
0.196754557202804131 -6.7692350016701166 -7.46969604492187411
0.643808817935076605 -4.65723709634031113 -7.17230463027954013
-9.67820749424071103 -8.35595019523014138 -10.0072631835937482
-0.93722437580153517 0.0702362605638853638 -7.01280689239501864
-1.93962892741111337 3.49506319122671716 -7.26242780685424716
6.11165117250144796 -5.29794567656102977 -7.92996978759765536
-1.22950945393024558 -6.04872547905007885 -7.19684743881225497
0.774149159089253636 2.50933866164940422 -5.30518484115600497
-2.27797250500559656 3.60870374866940491 -6.69023132324218661
4.05860989544703266 -8.40015710354043676 -8.51162052154540838
-1.39066684915852901 -4.59405897300925936 -7.54977846145629794
-3.97077380655103784 0.871187517170252335 -6.00381851196288974
3.52156962597388956 -1.61795367155145553 -8.27623748779296697
-4.4125386550378467 5.14620960727744681 -6.48189830780029208
17.923995850066305 31.3462454344525057 -69.7649078369140483
-1.57888778152326559 2.59864104790986072 -6.88576364517211825
4.91238928130201469 -5.67076256972576953 -7.77768325805663974
4.04212484035196429 -3.67838396705418313 -7.66716432571411044
-2.9261817316277301 0.26267292798874825 -7.34534311294555575
-0.360544826356544057 -6.95652604533449725 -7.36853075027465731
1.66128653258006254 -6.28579695442979336 -7.59681653976440341
2.2933743525842889 -1.14056838139716721 -9.04679107666015447
-4.40777768894674526 4.81361616947295712 -6.55529308319091708
4.17428803027671425 -0.347970119325764771 -8.38109207153320135
1.45042940031914136 -2.42081377614280902 -8.92680644989013494
-4.53640027663515522 -11.3946048758298133 -10.1910686492919904
-1.57444643545201024 3.88932432040082254 -7.48652267456054599
-11.5026155986827963 0.92647040388739843 -10.8822174072265607
5.10108310619643834 -5.41029252921339854 -7.78051233291625888
5.56391467111682125 -0.552735457320599588 -8.61841011047363104
1.33691724753945551 3.4143950402638179 -8.11916923522949041
-1.85569887466647132 -4.70571833605901091 -7.63968801498412997
5.24793748462031839 -3.9606819586244888 -7.92328310012817294
-9.2486306320234295 -5.50553992144753668 -11.2688999176025373
-2.74780526323750873 2.33983307867657686 -6.68762445449829013
-1.20079791942579095 2.48497357592513612 -6.30073499679565341
7.1441398112711969 -7.85761304560241935 -8.41489696502685369
-1.4600039005591825 -2.93943598807073103 -6.75253486633300692
-0.853215020423656934 4.22259130259589277 -9.0779542922973615
7.71188795767353241 -6.5548372803955699 -7.95625638961791903
-1.85144453097441875 -3.29291301436224781 -6.76791858673095614
-1.3021051874884324 -6.55316678921351503 -7.22030019760131747
-1.19792426338408542 -7.24968037188005798 -7.43898677825927646
0.998831977177490282 -8.30747251026132005 -7.82002210617065341
-0.2724570823510718 -4.00005645020507217 -7.59657907485961825
-2.1597321973922492 -1.27692189175583182 -6.49337387084960849
-4.03690208956131436 0.914374196838308118 -5.66282081604003817
-1.35640688234075202 4.36043028116637199 -7.50552082061767489
-3.1151270542361531 -0.40228829883499162 -7.62645578384399325
-1.00117144300959415 1.73114232374836652 -6.38809919357299716
3.33277840291835714 -2.0493043874452912 -7.88068771362304599
6.49155942752893189 -6.2590126205121015 -8.13128566741943182
-3.56177428036461929 0.393546001405442103 -7.60614204406738192
5.19915045280571242 -4.7955344485148661 -7.62382602691650302
4.46688895299995803 -5.03009781531742917 -7.53526449203491122
-2.31913957727162234 2.2685385827105895 -6.69691419601440341
-1.36077858169397126 4.79819492284622306 -7.47566938400268466
-0.0722672866542965198 2.40186948679600487 -6.15173339843749911
4.7123886453041921 -0.901163505071093773 -8.4651451110839826
8.10114496576548149 -7.34320905814086622 -8.6099357604980451
0.636525297236204657 -6.05614667003055285 -7.3208909034728995
1.05098019872249249 3.55874871434671824 -7.932600498199462
-4.00825048123429983 0.363517983483464757 -6.61824512481689364
2.51841830698101043 4.61157205368946865 -7.03381490707397372
-0.213601731799106187 -7.57958092764348645 -7.58485412597656161
-0.00733365025259471396 0.495952899287457338 -6.84663391113281161
4.70623523829428336 -8.24645583900347212 -8.4992790222167951
-0.384672449587878218 2.81340144010334336 -7.69993495941162021
-4.18022729545745975 1.4400778285501723 -5.61409807205200106
-10.8001830694593401 -0.336816697284534727 -10.7804212570190412
4.78494988932569854 -7.24621021487566441 -8.39141750335693182
-1.2352935779945502 4.88568651962197187 -9.43181037902831854
-0.973918286762003538 3.75964623690169786 -7.91447162628173739
3.70769703083615632 -6.90148580809918322 -8.09914302825927557
5.11127929209001763 -6.79265584174655945 -8.29065895080566229
2.37256282421987441 -8.05484421271694551 -8.20721340179443182
-1.84489530631014054 0.801393459011274123 -7.26594972610473544
4.82409202354685807 -0.875018627301460516 -8.16393375396728338
4.70779438384894 -6.66354005502502034 -8.19194602966308416
-1.74725433419227905 -10.1490328153619558 -7.52140903472900302
2.8384924799699669 -4.73246144894621157 -7.31058216094970614
1.95533849718361941 4.22148931530721327 -6.9602332115173331
0.196410463644589861 4.88970197548735275 -9.67391395568847479
-1.99942065910128974 -9.00680295124684172 -7.85689973831176669
6.56575382374118544 -4.08195816535116052 -9.397885322570799
-11.242594302301395 0.797736169125920491 -11.0990753173828107
-2.46905357982126361 -3.07899879734252169 -6.84267425537109286
11.6567137417820259 1.03625581603312233 -12.9764051437377912
5.49159273848787866 -7.57515299172364287 -8.49822902679443182
-2.64273171601022616 -2.75978886177322291 -6.79242658615112216
7.34072058385882453 -6.97958881200571657 -8.18067169189452947
1.0702371073571173 -7.18237089587606992 -7.59223604202270419
0.150413944621485801 -3.09781779653789746 -7.32649421691894442
-2.16269020078353558 -4.54737665811406533 -7.60929775238037021
-1.95173445590338446 -9.86839616560440192 -8.65753841400146307
-4.10621463131799835 0.868737913509107784 -5.19452810287475497
-2.74077428592215933 -0.867487904769113416 -6.54684162139892489
0.82750349679114199 4.96644791044373868 -3.94538164138793901
1.37676872042431109 3.16927525698760704 -7.42685461044311435
5.06858498709797001 -3.64273349957722559 -8.35382175445556463
1.64798516679311779 -8.4207371107847262 -7.8874182701110831
-2.76121887243200925 -0.934431385195889086 -6.54737997055053622
-3.71516616136549027 3.99885571235676807 -6.53623247146606356
-2.67139484679773753 -3.86329353881500026 -6.72181940078735263
3.79877194224646564 4.12503212125740149 -6.91315555572509677
5.24257952086394496 -0.798502372959235873 -8.00263500213622869
-2.49485867329908206 -2.2266218768482382 -6.7272319793701163
-0.753251902222096814 -8.42303326771505034 -7.71459579467773349
5.38166863124313544 1.3221674432338113 -8.61569786071777166
4.08324455492352278 4.61474216689190353 -7.4305858612060538
1.29565600228882238 4.37273684941607499 -6.85335540771484286
-1.36483076858019348 -0.300330872243189995 -6.84834814071655185
0.447068779743537481 1.28517228659549598 -7.27140712738037021
5.00287215249842898 -4.49092909664156092 -7.55400180816650302
-11.4808165949097258 -8.86544714392436006 -13.558224678039549
2.91060048796260107 -0.0952890516043610331 -10.5843334197998029
-4.19943645127653298 1.09976676520335426 -5.8308701515197745
2.51843630934157758 0.18203034666170545 -9.72530937194824041
1.21366399265959246 0.446565044387500554 -8.858639717102049
5.90043756600061098 -5.97983439907352743 -8.01075649261474432
2.08055938787307459 2.63392040126940508 -6.07477426528930575
-1.81398769867196163 -10.1428101353726454 -7.81073427200317294
0.544232415720208307 -4.14296399671904325 -7.686720371246337
-4.20356731203361811 2.54676988856717479 -6.61634016036987216
-3.30597577065947634 4.391081968584583 -6.68344449996948153
-0.784626969453027567 2.75761789906235544 -7.18079185485839755
3.28980423166984481 -4.97519939203861661 -7.38504886627197177
-2.2489006108998546 3.48059359787634337 -6.93706035614013583
0.840598019061178037 -4.38575640355802143 -6.999708652496337
-3.18250960608838396 -0.0811538141893574511 -7.59494543075561435
-0.994826463952326989 4.55692653441085938 -7.84003448486328036
-0.29972320813243003 -0.132537909461647618 -6.74271392822265536
7.05748784375302218 -4.07029630477228999 -8.56198883056640447
-4.13156427751026012 5.1619478068373299 -6.71047353744506747
-2.51319370825222421 -3.74578716667290079 -6.93796539306640536
4.38936449235283366 -8.87076463844322127 -8.59304141998290838
4.3747034502649873 -1.48045626818448195 -8.39256286621093572
-2.47134941723977963 4.51409650369541549 -6.51364135742187411
1.3328389507533065 -5.75235324777736778 -7.38540983200073153
3.49455967993468475 -5.5403161365205511 -7.54972410202026278
-1.14834961858152296 2.97440642297077185 -7.58098983764648349
2.88135096252664136 -1.7238561783174684 -8.86153602600097479
0.516881230367083222 -2.66042698395795885 -7.3118720054626456
-0.601981568235122499 2.195606780107203 -6.2039012908935538
2.05768229891913368 -0.0343826456065242023 -9.47501373291015447
1.22120324679853254 -4.30753053469224145 -7.07373189926147372
3.70715074138633671 -4.66888750371790717 -7.39191722869872958
-1.31841969135375092 3.71335274631459145 -7.537672519683837
-12.225849734392396 3.69891273469110349 -11.1617517471313459
-0.303997096299689185 -2.30660864314474034 -7.38183021545410067
4.50936912234960197 -7.41859466248304322 -8.34290313720702947
4.98150941630146349 -2.43333361961329642 -6.74711561203002841
0.473589164459089662 0.380061915454732391 -8.7355155944824201
1.9674078167611877 -7.78271065825983044 -7.95662069320678622
4.4928311069420781 -4.06681473587161957 -8.27054119110107244
6.19991625315803407 -6.21196806281944447 -8.031338691711424
-4.47623191231116646 4.75088628787895662 -6.60083770751953036
7.89162037477998624 -6.6950821201837325 -7.84242343902587802
-0.363267909658277988 -2.72821069377317871 -7.41126346588134677
-3.14397617186648271 3.83675387444212035 -6.39884996414184481
0.233092935203776247 2.56567303137061797 -6.37375783920287997
-3.67056981552690598 -0.828884211616588762 -6.53542184829711825
3.6258198500324923 -8.03940052081235024 -8.28646087646484197
-3.38987561400230542 0.300078285516847065 -7.57603645324706942
-1.04452013951531808 4.07251001612394958 -7.60626173019409091
3.97574385116238638 1.65110271597354163 -8.53260326385497869
-2.62547727685053456 -2.1801036389756745 -6.69055747985839755
-3.68283712202281865 3.35463776613363551 -6.56318759918212802
6.61597360531599588 -8.69685204481303487 -8.18114566802978338
-2.41944587034730274 -6.5547687605902123 -7.14842796325683505
-2.07526190758501361 0.821648750361328006 -9.96956157684325994
-1.01174370238504241 -2.42316457195019597 -7.35108900070190341
2.27033504061566571 -5.78766002402937385 -7.45038223266601474
-1.41136393172585728 -4.82206344250909957 -7.25837039947509677
4.75542075674239761 0.601466459640108253 -8.53606510162353338
-2.71613907516480291 -1.06688408121210543 -6.60792970657348544
-3.55369081933458952 1.28143524305924728 -5.75830888748168856
-1.0810961886607402 0.201330947253216791 -6.79589366912841708
-3.18649811725255594 3.11626935065300259 -6.57685899734496981
2.44771887147101719 -0.0189416135383296234 -9.05740165710449041
3.43236919700805565 3.94794218343105419 -6.84826564788818271
-3.31432664049401637 -1.2446660657937294 -6.58541345596313388
4.42689386821609432 1.89152824876266101 -8.74886226654052557
-2.60819890147006284 -6.3445957576242682 -7.17916393280029208
-1.01137657518066759 3.83010438543643428 -7.6804175376892081
37.6360337132968183 31.6090703654636549 -95.6263046264648295
2.99478997132618696 4.76129113582943031 -7.13259792327880771
3.78292783354375128 -1.53842575989361441 -8.47117805480956854
4.33800138993820106 4.04379945967223176 -7.3662095069885245
3.4571484830719732 -2.37677985150931992 -7.44807577133178622
4.77130286579044327 -8.03760302725522813 -8.46665859222411932
-8.74624013448404547 -6.38150231745829988 -11.6641025543212873
-1.48198710469327488 3.16655226121530875 -7.56722736358642489
-4.33812225805387719 4.79505294579649721 -6.54185104370117099
-4.0618324460209756 2.15172613403865221 -6.57093334197997958
2.35730283851138367 -8.40223535153016421 -8.16309452056884588
-0.971128343742384659 2.9205952305552243 -7.41703367233276278
4.35714442505121813 -3.64444963861785842 -8.27192592620849432
0.271993896887597453 -4.50296431350588922 -8.58323574066161932
2.13315213890779409 4.76379252033953637 -7.04772853851318271
3.91728867908555323 -7.99533389545585305 -8.34344577789306463
3.79878816820841037 4.81328981551286539 -7.97989654541015536
-1.33505522641143815 -4.78945821993406806 -7.449720859527587
4.96601386542940126 -1.35280668206957677 -8.62786388397216619
1.2339656004422801 -2.25022519010155797 -8.85219287872314275
5.64219754981522836 -5.5786318942415134 -7.9071631431579581
-3.0719836755838057 -1.26842789033337144 -6.60353469848632724
-2.14221587162266447 -5.10010434361055331 -6.89122724533080966
-2.36691646994526428 4.68105585973633076 -6.86027908325195224
-2.18527096319096392 -7.52861742267535572 -7.4938340187072745
1.48195851942955459 4.76483778584060857 -7.33018732070922763
2.75844904352697862 -8.44908337859564362 -8.27322959899902166
-2.83611135696129502 -2.75923657610960538 -6.77851152420043856
7.06379213634573144 -4.82097579347881755 -7.9162278175353995
-9.57905698569904018 -5.30121875946226684 -11.5844583511352521
-3.21836270173011174 -2.99143125711875157 -6.82281637191772372
-2.5065355031955785 4.56405661642154836 -6.61757040023803622
-1.55817746596187323 -4.43465385430239589 -7.56182289123535067
-2.92374632716251925 -5.34241968526213906 -7.0750408172607413
-3.19836956159134056 2.92023634171499635 -6.56096649169921786
1.41023771019302901 4.19006776380278012 -6.91300964355468661
-0.885022160432303306 -0.181472629063729074 -6.87182855606079013
5.40091240574599496 1.94534736875609826 -8.53960704803466619
9.64428875547580411 -6.6950199051221837 -8.55598354339599432
7.12756900555839223 -2.54647061214617221 -7.41148710250854403
-1.88883485578398913 -2.97810157140914455 -6.71839618682861239
4.80805113463915035 -9.24563274952565628 -7.68757534027099521
4.09640392768710537 3.76129378478997412 -7.24441862106323153
0.972624481509889227 1.68106704862837941 -5.97820758819579989
-3.41084856017732507 -0.793538720837678735 -7.52933120727538974
1.59422868108319049 -5.0410274263615289 -7.21844530105590731
-2.96487677306101949 -0.882285802771217154 -6.53475046157836825
0.241786087756852702 3.10592643802562751 -7.64900541305541903
-1.35265466709740867 -5.88575501904431331 -7.14291906356811435
0.0623016775773309259 -3.88037081339049239 -7.61825561523437411
-4.55893640767851327 3.97023680860244843 -6.52939939498901278
-1.19722633241443299 -1.52465257180258651 -7.25408554077148349
-0.0824967643243488535 5.43710035492541444 -9.54749011993408025
-1.8574142219559453 2.79810518154096011 -7.26427841186523349
-0.650415259464170004 -5.90572687066450275 -7.25249433517455966
4.68322849623331194 3.53635221092537089 -7.30105972290038974
0.906816473555563718 4.44028247845544133 -9.60801792144775213
0.448736986156896722 -3.97042029689263476 -7.66000080108642489
3.10701823878066108 -2.48863893197589281 -7.38273096084594638
6.71531706916244708 -3.98227191888192689 -9.59457588195800604
1.95676159311374032 4.61213863496040677 -7.03393936157226474
3.61237536901055867 -3.70436305999837012 -7.38045120239257724
4.63615890387242491 0.766693613716013411 -8.39672660827636541
-1.37687821973298852 2.06278589062968187 -7.06209516525268466
6.11841508070025863 -5.25800197693916349 -7.91144227981567294
-0.100117978856879397 4.63338177616800895 -9.597775459289549
-2.49575651797104969 -3.34805227448661746 -6.87339830398559481
-2.54932025495910652 -0.65778748949283794 -6.46083402633666903
3.66122823608019754 -8.58311025191921573 -8.43949699401855291
1.2609829709409246 -8.64807902323313371 -8.0290956497192365
-11.0801310911110367 0.763543120347256465 -10.8373012542724592
-2.22905085052619167 -8.88978535986335139 -7.72063779830932528
3.95791493428721042 3.7396808089443363 -8.87378311157226385
-2.73252423627945928 -0.589907518775316664 -6.30621719360351474
5.97747350211769479 -5.31933620496996085 -7.99140501022338778
4.18225006056229009 4.19389243343295703 -5.98477315902709872
-3.71230417500898957 2.92193472810769039 -6.66419601440429599
4.6681751598897705 3.63156275300698583 -7.14808988571166903
0.636386178823463933 -0.12231905384850722 -9.71177101135253729
-1.2334744625454872 7.56904232910527419 -6.33938550949096591
0.884298438420723643 -3.71063935829989999 -6.9912242889404288
-2.71374224501621786 -2.49564210476824311 -6.75203418731689364
3.5244590081377658 4.06722830575966388 -6.91723966598510653
6.43487640930766158 -4.20135494001248588 -8.41954803466796697
-1.75511909929137788 2.14569164376273402 -7.2898850440978995
-2.30904240930017624 3.12133848193378505 -6.6592688560485831
-3.20605516605922247 2.12748359377349461 -6.63578987121581942
-1.63042884825513412 3.27236947924623989 -7.24127912521362216
-0.317884274215736562 -9.63906404914754233 -7.93571853637695224
-0.711013934268782566 -3.06748795691512965 -7.42672395706176669
-2.72344731007486995 2.10595591306758578 -6.81532526016235263
-2.81357946129699288 2.68761898410416045 -6.6250286102294913
-3.66662535652441957 4.03713694735097839 -6.67376232147216708
-9.66048930775265013 -3.91501624050636199 -11.1745977401733381
-2.70811433163864734 3.10722597916092624 -6.68317842483520419
-9.96758698284092048 -7.80823138827174645 -13.7808284759521467
1.09837037083496969 4.16490104231644587 -8.19042205810546697
0.908211674986477591 4.47607244597795706 -7.87998867034912021
-3.52841176494411979 -1.91974770138741779 -6.66347169876098544
2.32551406184620291 -0.329949959186636943 -9.5988731384277326
1.0313414294276837 2.83932230761672466 -6.3346996307373038
-0.661090012956071504 2.82817152341155298 -7.64314413070678622
-2.79560296836956246 -0.101769228277140689 -6.98361158370971591
-2.5692604276518094 -4.85590392461713893 -7.57700824737548739
-3.86087403332912071 -0.211966818968729931 -7.6578350067138663
-1.90356930318647732 0.652575761087228812 -7.42928409576415927
3.88685100970611774 3.28038715720654084 -6.53457784652709872
3.82358691379036575 -3.85562806215785914 -7.42862844467162997
-2.23239120191761842 0.477317231073545623 -6.37427330017089755
-0.315382240671969516 -7.04109356177531609 -7.478102207183837
-12.2027349559395653 4.2628244266590789 -11.2127370834350568
-2.9361774156764322 -0.821893820922420915 -7.1316814422607413
0.232757659973471559 2.94063035421933527 -7.45768976211547763
-2.70673190300970745 1.92933377199195211 -6.66086530685424716
6.52668196663844213 -7.18203725125606685 -8.1812858581542951
-1.30751722306011975 2.37947471334016569 -6.81263780593871981
-2.7130138783211204 -4.97165719522084704 -7.22115087509155185
-1.78805115351984956 6.05795739918148346 -10.1530332565307599
-0.245919530448793305 -7.54074876174739739 -7.5361766815185538
8.19430819448850656 -8.37127896841508168 -8.61397552490234197
-2.2037544215971101 0.703180856089709594 -9.62295818328857244
0.00870569373686495666 -7.04223966012598446 -7.36800241470336825
3.84346497120796204 -0.886304711697082248 -7.59148597717285067
-2.97825400363433213 -1.17563102471330483 -6.59005784988403231
-3.99485730995738297 4.60208814621400197 -6.60585784912109286
-2.97604184504648073 -0.986375726040035095 -6.55690860748290927
2.83176050116480349 -0.848934711018990984 -9.94503307342529119
-3.01566927420550135 -0.814741376668341899 -6.65038442611694247
8.48003426517822767 -1.99692322148069934 -8.85803031921386541
0.416082385707215063 3.31499151584256868 -7.68144559860229403
2.44416613596420085 -4.17928340401430631 -7.28915739059448153
5.96688587468154896 0.959151291432411512 -8.8525047302246076
-4.48078848423130616 1.08461960504682509 -7.13682603836059481
3.37160309838447469 5.18412578586435124 -7.88515043258666903
-1.04378088299560234 4.19059301680475293 -9.27853393554687322
0.967597227096249513 -6.43498546311201913 -7.18688869476318271
-3.7435994325904276 1.44300518738590844 -6.78549909591674716
-2.14079423631638077 2.77251814727748158 -6.87185049057006747
-3.12236002823260694 -3.48634834680150751 -6.91656827926635653
0.179777692453742283 -4.26563775357697761 -7.67802047729492099
-1.15114470130226421 -6.08251410732480835 -7.14937305450439364
4.29434703688292441 2.49530771389865969 -8.63133621215820135
1.40113086614578863 -7.18805934041406669 -7.67087078094482333
8.92269643711333948 -3.31380958691545402 -7.63376712799072177
-1.63081064549057397 -4.38669076080439257 -7.57561206817626864
3.68303664972059774 -4.02038469326081582 -7.43065738677978427
-12.4150096103307757 4.41582320801010386 -11.3741817474365217
-1.23793726817432903 -4.87470519434870564 -7.06407165527343661
3.56097313407917104 -1.72124634865337645 -8.22898769378661932
2.19397009177058555 4.41567139505316586 -6.98185825347900302
-3.87907302140827381 1.2359923236242305 -5.8239111900329581
6.00463353500438135 -3.70247126702284612 -10.8626194000244123
-2.72363673200566581 -0.906778559812233653 -6.53253412246704013
6.9932523921247407 -5.83692270604855068 -8.07073211669921697
0.287502540734555445 -1.96789912896203378 -7.23603773117065341
-1.8235334704887296 -4.87691811298912015 -7.55860996246337802
29.8048701331277712 29.0339956659935474 -96.5244979858398295
4.77374955616219587 1.82091879350881425 -8.74354743957519354
-4.53652647277782606 3.94204835666316811 -6.49236106872558505
-3.52083277536483408 -0.710773632888475615 -7.78022813796996981
-0.580039876385353148 -2.18737045236068983 -7.32701444625854403
2.81840763817849371 -0.860751102416351221 -9.94425201416015447
3.98851505880397372 -4.48543613861227364 -7.41729688644409091
-2.50751573318829335 4.34539435379871275 -6.90396261215209872
-3.98251136981760423 0.838803352087671317 -5.14991664886474521
5.64404881378585443 0.525617643997269068 -8.28055572509765447
-1.48715125736740372 -3.55309705714311796 -6.79025554656982333
-3.56095521371517121 4.14243935232046923 -6.53514385223388583
-2.20532005815296417 -5.75813012766991061 -7.14745330810546786
-0.34216858825333063 -6.78971265939780899 -7.33831501007079989
-3.7079521588887534 3.74406135800606021 -6.56344890594482333
2.12014369350334286 -5.0198679002547486 -7.21586036682128817
-2.78068230582000053 2.45005015096499523 -6.62549686431884677
2.66389937468042115 -4.53417455629026556 -7.4139995574951163
-10.41788969877814 -2.67913089185612385 -11.058534622192381
-1.8760420361989032 1.10375611847838573 -7.31723880767822177
3.8298798203941371 -7.17169646879560574 -8.15611171722411932
-1.04553787056640801 2.54023195452537509 -6.42297506332397372
0.498585273100611404 -0.382595352454565718 -7.5820746421813956
0.612916042223220381 0.280645991717926424 -8.92303848266601385
-1.92993833814716265 -4.39454590068576323 -7.57419681549072177
-0.692807978003522118 -3.17911290078979381 -7.438124179840087
2.0867881624762652 0.376457367494454742 -9.42359828948974432
5.13383105877396773 -2.17632687186689422 -7.55790281295776278
-4.63227316739415329 0.664071302459168122 -12.6913385391235334
-2.0838399173727864 -1.73507544612598608 -6.5289287567138663
6.95140181782295308 -5.82587441726700206 -8.01932811737060369
-1.61755186831276787 1.51276014629329114 -6.39667177200317294
16.4408116393124217 30.4494911248078957 -61.2633438110351491
-2.71023843069742698 0.315489762377327343 -6.40666675567626864
-2.04703648182769671 0.461772732718765233 -6.42664146423339755
-2.75047475841081424 1.5161701997964474 -6.52135324478149325
5.30326083069033771 -6.41557956351670544 -8.33955287933349432
5.20041311308948995 -8.33037789248985661 -8.58318042755126775
5.96193741876631211 -4.23684720175681129 -9.27825736999511541
-2.40024188714063813 3.94818430486113803 -6.63243293762206942
5.30729034018870305 -0.390635821626858726 -8.71526241302490057
2.76522677922499405 -6.28305678177770677 -7.57004547119140536
2.35933730473893055 2.8705586580970075 -6.24283552169799716
5.62873185907110241 -0.195289264693672221 -7.50351142883300692
-3.25884838384469511 -1.48328726333933703 -6.6107611656188956
-2.06797548146433519 4.54514936466531871 -7.26842546463012606
2.31384683536631908 -4.26294361747836525 -7.29277896881103427
3.14879990536735255 -2.1384833118834603 -7.43729639053344638
6.82829554517109205 -1.88349490629269822 -8.69817447662353338
3.80193034589127921 -8.7325595056475791 -8.48808479309081854
-2.62535385711502878 -7.01781449628504106 -7.3513469696044913
3.33055786608780613 4.54027400118278468 -6.19530057907104403
-2.15055712212763028 -6.6086754971449686 -7.23197984695434481
4.2825787977770835 0.218928523040944512 -8.92348670959472479
-2.46533252252310486 1.79221499891819391 -6.51694250106811435
-3.67700630851690802 0.449009118677772157 -7.390821933746337
-2.19374408785293662 -1.20318453176399975 -6.49796438217162997
-9.81513964008375162 -3.02697484834069863 -11.0185756683349592
1.07429232013625553 4.40018630824204227 -8.51755046844482244
-0.514510478753637868 -2.88314377135952604 -7.42318344116210849
-2.85578108418950016 -0.699618771949013785 -6.38089179992675692
6.24717968475805296 -0.97055795438207948 -8.43610000610351385
-3.80748372763199638 -8.41869801304848586 -10.0807619094848615
-1.95759506204182698 5.24116718113112068 -6.91941452026367099
0.860911911592552204 -5.67512644984993742 -7.31616735458373935
1.43729903529691905 3.50862909755694696 -7.85592937469482333
0.900390214257758448 -2.93141471329612591 -7.37781524658203036
-1.82198742787650203 0.409647042843759468 -6.33414602279662997
-4.3162615075205526 2.44580312073001904 -6.54689311981201083
-2.04252324411565755 -6.58270925696605325 -7.224348545074462
1.01042898882778531 -6.85273102448751459 -7.54966640472412021
2.33705854845402117 -4.25623259568757017 -7.2719244956970206
0.548245526343210665 5.52334917737151176 -9.89140605926513494
